55.73,55.73,55.73,55.73,55.73,55.73,55.73,55.73,55.73,55.73,55.73,55.73,55.73,55.73,55.73,55.73,55.73,55.71,55.70,55.70,55.70,55.70,55.63,55.60,55.58,55.51,55.50,55.45,55.40,55.40,55.40,55.40,55.39,55.35,55.31,55.30,55.30,55.27,55.20,55.20,55.20,55.20,55.20,55.20,55.20,55.19,55.16,55.16,55.12,55.10,55.10,55.10,55.10,55.10,55.10,55.10,55.10,55.10,55.10,55.10,55.10,55.07,55.06,55.04,55.00,55.00,55.00,55.00,55.00,55.00,55.00,55.00,55.00,55.00,55.00,55.00,55.00,55.00,55.00,55.00,55.00,55.00,55.00,55.00,55.00,55.00,55.00,55.00,55.00,55.00,55.00,55.00,55.00,54.94,54.75,54.42,53.96,53.52,53.04,52.58,52.31,52.11,51.90,51.67,51.44,51.23,51.04,50.88,50.73,50.63,50.55,50.44,50.33,50.25,50.20,50.11,50.02,49.97,49.96,49.96,49.96,49.96,49.96,49.96,49.94,49.90,49.90,49.90,49.90,49.90,49.90,49.90,49.90,49.90,49.90,49.90,49.90,49.90,49.90,49.90,49.90,49.90,49.90,49.90,49.90,49.90,49.90,49.91,49.93,49.95,49.98,50.00,50.04,50.12,50.25,50.41,50.56,50.71,50.80,50.89,50.97,51.02,51.03,51.03,51.09,51.20,51.29,51.41,51.41,51.41,51.59,51.88,52.19,52.42,52.54,52.62,52.63,52.63,52.63,52.63,52.63,52.61,52.60,52.60,52.60,52.60,52.60,52.60,52.60,52.62,52.63,52.63,52.63,52.63,52.63,52.63,52.63,52.63,52.63,52.63,52.63,52.63,52.65,52.66,52.66,52.66,52.66,52.70,52.73,52.73,52.73,52.73,52.73,52.73,52.74,52.75,52.76,52.76,52.76,52.77,52.81,52.84,52.84,52.84,52.84,52.84,52.84,52.84,52.86,52.86,52.86,52.86,52.87,52.91,52.94,52.94,52.94,52.94,52.94,52.94,52.96,52.96,52.96,52.96,52.96,52.97,53.01,53.01,53.00,53.00,53.00,52.94,52.90,52.90,52.89,52.85
55.70,55.70,55.70,55.70,55.70,55.68,55.66,55.66,55.66,55.66,55.66,55.66,55.66,55.66,55.66,55.66,55.66,55.66,55.66,55.68,55.70,55.70,55.63,55.60,55.58,55.51,55.50,55.45,55.40,55.40,55.40,55.40,55.40,55.38,55.31,55.30,55.30,55.28,55.23,55.21,55.20,55.20,55.20,55.20,55.20,55.20,55.20,55.19,55.15,55.11,55.10,55.10,55.10,55.10,55.10,55.10,55.10,55.10,55.10,55.10,55.10,55.10,55.10,55.06,55.00,55.00,55.00,55.00,55.00,55.00,55.00,55.00,55.00,55.00,55.00,55.00,55.00,55.00,55.00,55.00,55.00,55.00,55.00,55.00,55.00,55.00,55.00,55.00,55.00,55.00,55.00,55.00,55.00,55.00,54.88,54.53,54.09,53.64,53.22,52.83,52.56,52.38,52.20,51.98,51.75,51.52,51.34,51.20,51.08,50.97,50.83,50.69,50.57,50.50,50.40,50.27,50.16,50.09,50.07,50.06,50.06,50.06,50.06,50.09,50.08,50.04,49.99,49.94,49.91,49.90,49.90,49.90,49.90,49.90,49.90,49.90,49.90,49.90,49.90,49.90,49.90,49.90,49.90,49.90,49.90,49.90,49.90,49.90,49.90,49.90,49.90,49.90,49.91,49.97,50.06,50.16,50.28,50.45,50.52,50.61,50.70,50.77,50.77,50.79,50.88,51.02,51.10,51.25,51.25,51.26,51.46,51.75,52.06,52.30,52.44,52.52,52.56,52.58,52.60,52.60,52.60,52.60,52.60,52.60,52.60,52.60,52.60,52.60,52.60,52.60,52.60,52.60,52.60,52.60,52.60,52.59,52.57,52.56,52.56,52.56,52.56,52.56,52.56,52.56,52.56,52.56,52.57,52.61,52.63,52.63,52.63,52.63,52.63,52.64,52.66,52.66,52.66,52.66,52.66,52.67,52.71,52.73,52.73,52.73,52.73,52.73,52.75,52.77,52.77,52.77,52.77,52.77,52.77,52.81,52.83,52.83,52.83,52.83,52.85,52.87,52.87,52.87,52.87,52.87,52.87,52.87,52.92,52.94,52.94,52.94,52.94,52.91,52.90,52.90,52.89,52.83
55.70,55.70,55.70,55.70,55.70,55.65,55.61,55.61,55.61,55.61,55.61,55.61,55.61,55.60,55.60,55.60,55.60,55.60,55.61,55.65,55.70,55.69,55.63,55.60,55.58,55.51,55.50,55.45,55.40,55.40,55.40,55.40,55.40,55.38,55.31,55.30,55.30,55.30,55.27,55.22,55.20,55.20,55.20,55.20,55.20,55.20,55.20,55.20,55.19,55.14,55.11,55.10,55.10,55.10,55.10,55.10,55.10,55.10,55.10,55.10,55.10,55.10,55.10,55.06,55.01,55.00,55.00,55.00,55.00,55.00,55.00,55.00,55.00,55.00,55.00,55.00,55.00,55.00,55.00,55.00,55.00,55.00,55.00,55.00,55.00,55.00,55.00,55.00,55.00,55.00,55.00,55.00,55.00,55.00,54.88,54.54,54.10,53.71,53.42,53.18,52.83,52.63,52.47,52.28,52.06,51.83,51.66,51.52,51.41,51.26,51.01,50.85,50.76,50.68,50.55,50.44,50.36,50.28,50.21,50.19,50.19,50.19,50.20,50.25,50.32,50.31,50.17,50.04,49.95,49.91,49.90,49.90,49.90,49.90,49.90,49.90,49.90,49.90,49.90,49.90,49.90,49.90,49.90,49.90,49.90,49.90,49.90,49.90,49.90,49.90,49.90,49.90,49.90,49.91,49.93,49.94,50.01,50.20,50.23,50.33,50.45,50.51,50.52,50.58,50.69,50.83,50.92,51.05,51.07,51.09,51.33,51.63,51.93,52.18,52.32,52.40,52.47,52.54,52.60,52.60,52.60,52.60,52.60,52.60,52.60,52.60,52.60,52.60,52.60,52.60,52.60,52.60,52.60,52.60,52.60,52.57,52.52,52.51,52.51,52.51,52.51,52.51,52.51,52.51,52.51,52.51,52.51,52.52,52.52,52.52,52.52,52.52,52.52,52.54,52.59,52.60,52.60,52.60,52.60,52.60,52.61,52.62,52.62,52.62,52.62,52.62,52.64,52.70,52.70,52.70,52.70,52.70,52.70,52.71,52.72,52.72,52.72,52.72,52.76,52.80,52.80,52.80,52.80,52.80,52.80,52.80,52.81,52.81,52.81,52.81,52.81,52.86,52.89,52.89,52.88,52.83
55.66,55.64,55.64,55.64,55.64,55.62,55.60,55.60,55.60,55.60,55.60,55.60,55.59,55.56,55.55,55.55,55.55,55.55,55.58,55.62,55.64,55.64,55.61,55.60,55.58,55.51,55.50,55.48,55.44,55.40,55.40,55.40,55.40,55.38,55.31,55.30,55.30,55.29,55.24,55.21,55.20,55.20,55.20,55.20,55.20,55.20,55.20,55.20,55.20,55.18,55.14,55.10,55.10,55.10,55.10,55.10,55.10,55.10,55.10,55.10,55.10,55.10,55.10,55.09,55.05,55.01,55.00,55.00,55.00,55.00,55.00,55.00,55.00,55.00,55.00,55.00,55.00,55.00,55.00,55.00,55.00,55.00,55.00,55.00,55.00,55.00,55.00,55.00,55.00,55.00,55.00,55.00,55.00,55.00,54.90,54.61,54.25,54.00,53.77,53.50,53.13,52.86,52.68,52.51,52.32,52.14,51.94,51.73,51.53,51.33,51.14,51.03,50.95,50.87,50.77,50.64,50.54,50.47,50.39,50.34,50.31,50.31,50.32,50.39,50.46,50.46,50.31,50.15,50.06,49.99,49.95,49.91,49.90,49.90,49.90,49.90,49.90,49.90,49.90,49.90,49.90,49.90,49.90,49.91,49.95,49.95,49.93,49.90,49.90,49.90,49.90,49.90,49.90,49.90,49.90,49.90,49.93,50.01,50.02,50.07,50.14,50.21,50.26,50.37,50.48,50.59,50.72,50.83,50.88,50.96,51.20,51.50,51.81,52.05,52.19,52.28,52.39,52.48,52.55,52.59,52.60,52.60,52.60,52.60,52.60,52.60,52.60,52.60,52.60,52.60,52.57,52.55,52.55,52.55,52.55,52.53,52.50,52.50,52.50,52.50,52.50,52.50,52.50,52.50,52.50,52.50,52.50,52.50,52.50,52.50,52.50,52.50,52.50,52.50,52.48,52.48,52.48,52.48,52.49,52.53,52.55,52.55,52.55,52.55,52.55,52.55,52.55,52.58,52.58,52.58,52.58,52.59,52.64,52.64,52.64,52.64,52.64,52.64,52.67,52.69,52.69,52.69,52.69,52.69,52.70,52.74,52.74,52.74,52.74,52.74,52.74,52.77,52.78,52.78,52.78,52.76
55.63,55.59,55.58,55.58,55.58,55.58,55.58,55.58,55.58,55.58,55.58,55.58,55.57,55.52,55.50,55.50,55.50,55.50,55.55,55.58,55.58,55.60,55.60,55.60,55.58,55.51,55.50,55.50,55.48,55.42,55.40,55.40,55.40,55.38,55.31,55.30,55.30,55.27,55.22,55.20,55.20,55.20,55.20,55.20,55.20,55.20,55.20,55.20,55.20,55.20,55.17,55.12,55.10,55.10,55.10,55.10,55.10,55.10,55.10,55.10,55.10,55.10,55.10,55.10,55.09,55.03,55.02,55.01,55.00,55.00,55.00,55.00,55.00,55.00,55.00,55.00,55.00,55.00,55.00,55.00,55.00,55.00,55.00,55.00,55.00,55.00,55.00,55.00,55.00,55.00,55.00,55.00,55.00,55.00,54.93,54.73,54.49,54.35,54.13,53.79,53.41,53.09,52.88,52.72,52.55,52.37,52.14,51.88,51.61,51.40,51.30,51.22,51.14,51.06,50.98,50.86,50.73,50.66,50.57,50.50,50.46,50.45,50.45,50.51,50.58,50.57,50.42,50.28,50.18,50.11,50.05,49.97,49.95,49.93,49.92,49.90,49.90,49.90,49.91,49.92,49.92,49.92,49.93,49.96,50.02,50.01,49.96,49.91,49.90,49.90,49.90,49.90,49.90,49.90,49.90,49.90,49.90,49.90,49.90,49.90,49.92,49.98,50.05,50.16,50.26,50.35,50.50,50.61,50.69,50.81,51.05,51.36,51.67,51.92,52.06,52.15,52.29,52.40,52.48,52.55,52.59,52.60,52.60,52.60,52.60,52.60,52.59,52.58,52.58,52.58,52.54,52.50,52.50,52.50,52.50,52.50,52.50,52.50,52.50,52.50,52.50,52.50,52.50,52.50,52.50,52.50,52.50,52.50,52.50,52.50,52.48,52.48,52.48,52.46,52.41,52.40,52.40,52.40,52.41,52.47,52.48,52.48,52.48,52.48,52.48,52.48,52.48,52.48,52.48,52.48,52.48,52.50,52.55,52.56,52.56,52.56,52.56,52.56,52.57,52.58,52.58,52.58,52.58,52.58,52.60,52.65,52.66,52.66,52.66,52.66,52.67,52.68,52.68,52.68,52.68,52.68
55.60,55.56,55.52,55.52,55.52,55.52,55.52,55.52,55.52,55.52,55.52,55.52,55.52,55.50,55.50,55.50,55.50,55.50,55.51,55.52,55.53,55.59,55.60,55.60,55.58,55.51,55.50,55.50,55.49,55.47,55.41,55.40,55.40,55.38,55.31,55.30,55.30,55.30,55.27,55.22,55.20,55.20,55.20,55.20,55.20,55.20,55.20,55.20,55.20,55.20,55.19,55.17,55.11,55.10,55.10,55.10,55.10,55.10,55.10,55.10,55.10,55.10,55.10,55.10,55.10,55.09,55.09,55.04,55.00,55.00,55.00,55.00,55.00,55.00,55.00,55.00,55.00,55.00,55.00,55.00,55.00,55.00,55.00,55.00,55.00,55.00,55.00,55.00,55.00,55.00,55.00,55.00,55.00,55.00,54.98,54.94,54.88,54.72,54.42,54.05,53.66,53.34,53.13,52.96,52.73,52.46,52.16,51.92,51.74,51.58,51.48,51.41,51.32,51.25,51.17,51.04,50.92,50.84,50.76,50.69,50.65,50.63,50.58,50.64,50.67,50.63,50.49,50.39,50.31,50.26,50.23,50.16,50.09,50.03,49.97,49.91,49.90,49.90,49.92,49.98,49.98,49.98,50.02,50.08,50.14,50.05,49.99,49.96,49.91,49.90,49.90,49.90,49.90,49.90,49.90,49.90,49.90,49.90,49.90,49.90,49.91,49.92,49.93,49.95,50.01,50.10,50.25,50.40,50.50,50.63,50.87,51.17,51.48,51.75,51.94,52.02,52.17,52.28,52.35,52.44,52.56,52.60,52.60,52.60,52.60,52.60,52.57,52.52,52.52,52.52,52.51,52.50,52.50,52.50,52.50,52.50,52.50,52.50,52.50,52.50,52.50,52.50,52.50,52.50,52.50,52.50,52.50,52.50,52.50,52.49,52.43,52.41,52.41,52.41,52.40,52.40,52.40,52.40,52.40,52.41,52.41,52.41,52.41,52.41,52.41,52.41,52.41,52.41,52.41,52.41,52.41,52.42,52.43,52.44,52.44,52.44,52.44,52.44,52.48,52.52,52.52,52.52,52.52,52.52,52.52,52.53,52.53,52.53,52.53,52.55,52.60,52.62,52.62,52.62,52.62,52.62
55.60,55.55,55.49,55.46,55.45,55.45,55.45,55.45,55.45,55.45,55.45,55.45,55.45,55.45,55.45,55.45,55.45,55.45,55.48,55.50,55.51,55.55,55.55,55.58,55.58,55.51,55.50,55.50,55.50,55.48,55.41,55.40,55.40,55.38,55.31,55.30,55.30,55.30,55.29,55.22,55.20,55.20,55.20,55.20,55.20,55.20,55.20,55.20,55.20,55.20,55.20,55.19,55.12,55.10,55.10,55.10,55.10,55.10,55.10,55.10,55.10,55.10,55.10,55.10,55.10,55.10,55.10,55.07,55.04,55.00,55.00,55.00,55.00,55.00,55.00,55.00,55.00,55.00,55.00,55.00,55.00,55.00,55.00,55.00,55.00,55.00,55.00,55.00,55.00,55.00,55.00,55.00,55.00,55.00,55.00,55.00,55.00,54.87,54.59,54.20,53.83,53.51,53.25,53.01,52.74,52.43,52.20,52.04,51.91,51.76,51.67,51.59,51.51,51.44,51.36,51.23,51.11,51.03,50.95,50.88,50.82,50.78,50.75,50.77,50.79,50.74,50.60,50.51,50.46,50.42,50.38,50.30,50.23,50.15,50.07,50.00,49.99,49.99,50.01,50.05,50.08,50.09,50.13,50.20,50.23,50.14,50.07,50.02,49.95,49.91,49.90,49.90,49.90,49.90,49.90,49.90,49.89,49.86,49.85,49.85,49.87,49.90,49.90,49.90,49.92,49.98,50.06,50.20,50.33,50.48,50.73,51.02,51.33,51.63,51.85,51.91,52.04,52.15,52.24,52.35,52.47,52.53,52.55,52.55,52.55,52.55,52.54,52.50,52.50,52.50,52.50,52.50,52.50,52.50,52.50,52.50,52.50,52.50,52.50,52.50,52.50,52.50,52.50,52.50,52.49,52.46,52.45,52.45,52.45,52.45,52.41,52.40,52.40,52.40,52.40,52.40,52.40,52.40,52.40,52.40,52.40,52.40,52.40,52.40,52.40,52.40,52.40,52.39,52.36,52.35,52.35,52.35,52.35,52.35,52.35,52.35,52.35,52.35,52.38,52.41,52.41,52.41,52.41,52.43,52.45,52.45,52.45,52.45,52.45,52.46,52.50,52.51,52.51,52.51,52.51,52.51
55.59,55.54,55.48,55.41,55.41,55.41,55.41,55.40,55.39,55.39,55.39,55.39,55.39,55.39,55.39,55.39,55.39,55.40,55.46,55.49,55.49,55.50,55.50,55.54,55.57,55.51,55.50,55.50,55.50,55.47,55.41,55.40,55.39,55.37,55.31,55.30,55.30,55.30,55.29,55.23,55.21,55.20,55.20,55.20,55.20,55.20,55.20,55.20,55.20,55.20,55.20,55.19,55.13,55.10,55.10,55.10,55.10,55.10,55.10,55.10,55.10,55.10,55.10,55.10,55.10,55.10,55.10,55.10,55.08,55.02,55.00,55.00,55.00,55.00,55.00,55.00,55.00,55.00,55.00,55.00,55.00,55.00,55.00,55.00,55.00,55.00,55.00,55.00,55.00,55.00,55.00,55.00,55.00,55.00,55.00,55.00,55.00,54.92,54.66,54.27,53.90,53.58,53.28,52.98,52.69,52.40,52.26,52.18,52.09,51.95,51.86,51.78,51.70,51.63,51.55,51.42,51.30,51.22,51.14,51.06,50.98,50.93,50.92,50.92,50.92,50.87,50.73,50.65,50.62,50.58,50.51,50.43,50.35,50.27,50.20,50.13,50.12,50.12,50.12,50.13,50.19,50.21,50.25,50.30,50.30,50.25,50.17,50.09,50.02,49.95,49.91,49.90,49.90,49.90,49.89,49.89,49.87,49.81,49.81,49.81,49.83,49.88,49.89,49.89,49.89,49.89,49.92,50.03,50.17,50.35,50.60,50.90,51.21,51.52,51.76,51.79,51.91,52.03,52.12,52.27,52.36,52.43,52.49,52.50,52.50,52.50,52.50,52.50,52.50,52.50,52.50,52.50,52.50,52.50,52.50,52.50,52.50,52.50,52.50,52.50,52.50,52.49,52.49,52.49,52.47,52.41,52.41,52.41,52.41,52.40,52.40,52.40,52.40,52.40,52.40,52.40,52.40,52.40,52.40,52.40,52.40,52.40,52.40,52.39,52.39,52.39,52.39,52.38,52.32,52.31,52.31,52.31,52.31,52.31,52.31,52.31,52.31,52.31,52.31,52.31,52.31,52.31,52.31,52.34,52.39,52.39,52.38,52.38,52.38,52.39,52.39,52.39,52.39,52.39,52.39,52.39
55.55,55.51,55.48,55.41,55.40,55.40,55.40,55.39,55.34,55.33,55.33,55.33,55.33,55.33,55.33,55.33,55.34,55.39,55.42,55.42,55.44,55.49,55.50,55.51,55.52,55.50,55.50,55.50,55.48,55.43,55.40,55.40,55.37,55.32,55.30,55.30,55.30,55.30,55.30,55.27,55.23,55.20,55.20,55.20,55.20,55.20,55.20,55.20,55.20,55.20,55.20,55.20,55.17,55.13,55.10,55.10,55.10,55.10,55.10,55.10,55.10,55.10,55.10,55.10,55.10,55.10,55.10,55.10,55.09,55.06,55.02,55.00,55.00,55.00,55.00,55.00,55.00,55.00,55.00,55.00,55.00,55.00,55.00,55.00,55.00,55.00,55.00,55.00,55.00,55.00,55.00,55.00,55.00,55.00,55.00,55.00,55.00,54.85,54.53,54.11,53.78,53.47,53.16,52.89,52.69,52.49,52.38,52.31,52.23,52.13,52.05,51.97,51.89,51.81,51.74,51.65,51.53,51.41,51.33,51.25,51.17,51.10,51.05,51.04,51.04,51.01,50.91,50.84,50.77,50.71,50.63,50.55,50.48,50.40,50.32,50.25,50.24,50.24,50.24,50.25,50.27,50.31,50.35,50.37,50.37,50.35,50.29,50.22,50.14,50.06,49.96,49.90,49.90,49.90,49.85,49.83,49.82,49.80,49.80,49.80,49.81,49.83,49.83,49.83,49.83,49.84,49.90,49.94,50.02,50.18,50.47,50.77,51.08,51.39,51.64,51.67,51.79,51.90,52.00,52.14,52.23,52.31,52.40,52.49,52.50,52.50,52.50,52.50,52.50,52.50,52.50,52.50,52.50,52.50,52.50,52.50,52.50,52.50,52.50,52.50,52.49,52.44,52.42,52.42,52.42,52.40,52.40,52.40,52.40,52.40,52.40,52.40,52.40,52.40,52.40,52.40,52.40,52.40,52.40,52.40,52.40,52.40,52.39,52.34,52.33,52.33,52.33,52.32,52.31,52.30,52.30,52.30,52.30,52.30,52.30,52.30,52.30,52.30,52.30,52.30,52.30,52.30,52.30,52.31,52.33,52.32,52.27,52.26,52.27,52.32,52.33,52.33,52.33,52.33,52.33,52.33
55.52,55.50,55.48,55.41,55.37,55.37,55.37,55.36,55.31,55.30,55.30,55.30,55.30,55.30,55.30,55.30,55.31,55.35,55.37,55.38,55.41,55.46,55.47,55.48,55.50,55.50,55.50,55.50,55.47,55.41,55.40,55.40,55.36,55.30,55.30,55.30,55.30,55.30,55.30,55.30,55.24,55.20,55.20,55.20,55.20,55.20,55.20,55.20,55.20,55.20,55.20,55.20,55.20,55.14,55.10,55.10,55.10,55.10,55.10,55.10,55.10,55.10,55.10,55.10,55.10,55.10,55.10,55.10,55.10,55.09,55.05,55.03,55.02,55.00,55.00,55.00,55.00,55.00,55.00,55.00,55.00,55.00,55.00,55.00,55.00,55.00,55.00,55.00,55.00,55.00,55.00,55.00,55.00,55.00,55.00,55.00,54.97,54.74,54.37,53.96,53.66,53.37,53.12,52.91,52.76,52.63,52.55,52.47,52.39,52.31,52.23,52.16,52.08,51.97,51.89,51.81,51.72,51.60,51.51,51.44,51.36,51.28,51.21,51.18,51.17,51.14,51.06,50.99,50.91,50.83,50.76,50.68,50.60,50.52,50.45,50.41,50.38,50.37,50.37,50.37,50.37,50.43,50.47,50.47,50.47,50.44,50.39,50.31,50.23,50.16,50.02,49.94,49.93,49.91,49.86,49.84,49.83,49.80,49.80,49.78,49.77,49.77,49.77,49.79,49.80,49.81,49.86,49.89,49.93,50.05,50.31,50.62,50.94,51.27,51.52,51.57,51.68,51.77,51.87,52.02,52.11,52.20,52.31,52.42,52.46,52.49,52.50,52.50,52.50,52.50,52.50,52.50,52.50,52.50,52.50,52.49,52.47,52.47,52.47,52.47,52.45,52.41,52.40,52.40,52.40,52.40,52.40,52.40,52.40,52.40,52.40,52.40,52.40,52.40,52.40,52.40,52.40,52.40,52.39,52.37,52.37,52.37,52.35,52.31,52.30,52.30,52.30,52.30,52.30,52.30,52.30,52.30,52.30,52.30,52.30,52.30,52.30,52.30,52.30,52.30,52.30,52.30,52.28,52.27,52.27,52.26,52.22,52.20,52.22,52.26,52.27,52.27,52.27,52.27,52.27,52.27
55.50,55.50,55.47,55.40,55.33,55.31,55.30,55.30,55.30,55.29,55.29,55.29,55.29,55.29,55.29,55.29,55.29,55.31,55.31,55.34,55.39,55.40,55.41,55.45,55.50,55.50,55.50,55.50,55.47,55.41,55.40,55.40,55.36,55.30,55.30,55.30,55.30,55.30,55.30,55.30,55.24,55.21,55.20,55.20,55.20,55.20,55.20,55.20,55.20,55.20,55.20,55.20,55.20,55.14,55.10,55.10,55.10,55.10,55.10,55.10,55.10,55.10,55.10,55.10,55.10,55.10,55.10,55.10,55.10,55.10,55.09,55.09,55.06,55.00,55.00,55.00,55.00,55.00,55.00,55.00,55.00,55.00,55.00,55.00,55.00,55.00,55.00,55.00,55.00,55.00,55.00,55.00,55.00,55.00,55.00,54.98,54.90,54.59,54.21,53.85,53.55,53.31,53.16,53.04,52.90,52.81,52.73,52.65,52.57,52.49,52.42,52.34,52.24,52.11,52.02,51.95,51.87,51.78,51.70,51.63,51.55,51.48,51.39,51.32,51.30,51.27,51.19,51.11,51.03,50.96,50.88,50.80,50.73,50.66,50.59,50.58,50.52,50.49,50.49,50.49,50.50,50.55,50.59,50.59,50.58,50.52,50.44,50.36,50.29,50.21,50.08,49.99,49.98,49.92,49.90,49.89,49.87,49.81,49.80,49.76,49.72,49.71,49.71,49.76,49.79,49.80,49.81,49.87,49.90,49.96,50.14,50.43,50.79,51.14,51.40,51.48,51.57,51.65,51.75,51.89,51.98,52.11,52.23,52.31,52.38,52.46,52.50,52.50,52.50,52.50,52.50,52.50,52.50,52.50,52.50,52.47,52.41,52.41,52.41,52.41,52.41,52.40,52.40,52.40,52.40,52.40,52.40,52.40,52.40,52.40,52.40,52.40,52.40,52.40,52.39,52.39,52.39,52.39,52.38,52.33,52.31,52.31,52.31,52.30,52.30,52.30,52.30,52.30,52.30,52.30,52.30,52.30,52.30,52.30,52.30,52.30,52.30,52.29,52.29,52.29,52.29,52.29,52.24,52.21,52.21,52.21,52.20,52.20,52.20,52.21,52.21,52.21,52.21,52.21,52.21,52.21
55.50,55.47,55.43,55.39,55.32,55.27,55.24,55.24,55.24,55.24,55.24,55.24,55.24,55.24,55.24,55.24,55.25,55.29,55.30,55.31,55.34,55.34,55.38,55.42,55.46,55.50,55.50,55.50,55.47,55.41,55.40,55.40,55.38,55.35,55.31,55.30,55.30,55.30,55.30,55.30,55.28,55.24,55.20,55.20,55.20,55.20,55.20,55.20,55.20,55.20,55.20,55.20,55.20,55.14,55.10,55.10,55.10,55.10,55.10,55.10,55.10,55.10,55.10,55.10,55.10,55.10,55.10,55.10,55.10,55.10,55.10,55.06,55.03,55.00,55.00,55.00,55.00,55.00,55.00,55.00,55.00,55.00,55.00,55.00,55.00,55.00,55.00,55.00,55.00,55.00,55.00,55.00,55.00,55.00,55.00,54.96,54.76,54.41,54.07,53.79,53.58,53.43,53.30,53.18,53.08,53.00,52.89,52.78,52.71,52.63,52.55,52.47,52.39,52.28,52.20,52.13,52.05,51.97,51.89,51.81,51.74,51.66,51.59,51.50,51.45,51.39,51.31,51.24,51.16,51.08,51.01,50.93,50.89,50.84,50.76,50.72,50.64,50.59,50.58,50.62,50.62,50.68,50.72,50.70,50.61,50.53,50.45,50.36,50.25,50.21,50.12,50.06,50.04,49.97,49.92,49.90,49.88,49.81,49.80,49.78,49.74,49.70,49.70,49.73,49.74,49.75,49.80,49.83,49.87,49.92,50.02,50.30,50.63,50.96,51.23,51.36,51.45,51.55,51.67,51.77,51.86,51.98,52.11,52.19,52.27,52.38,52.46,52.50,52.50,52.50,52.50,52.49,52.45,52.44,52.44,52.43,52.40,52.40,52.40,52.40,52.40,52.40,52.40,52.40,52.40,52.40,52.40,52.40,52.40,52.40,52.40,52.40,52.40,52.39,52.34,52.34,52.34,52.34,52.34,52.31,52.30,52.30,52.30,52.30,52.30,52.30,52.30,52.30,52.30,52.30,52.30,52.30,52.30,52.30,52.30,52.30,52.29,52.25,52.24,52.24,52.24,52.24,52.21,52.20,52.20,52.20,52.20,52.20,52.20,52.20,52.20,52.20,52.20,52.20,52.20,52.20
55.48,55.44,55.40,55.39,55.32,55.24,55.19,55.18,55.17,55.17,55.17,55.17,55.17,55.17,55.17,55.19,55.21,55.26,55.27,55.29,55.30,55.30,55.36,55.39,55.42,55.47,55.48,55.48,55.45,55.41,55.40,55.40,55.40,55.38,55.31,55.30,55.30,55.30,55.30,55.30,55.30,55.26,55.20,55.20,55.20,55.20,55.20,55.20,55.20,55.20,55.20,55.20,55.20,55.15,55.11,55.10,55.10,55.10,55.10,55.10,55.10,55.10,55.10,55.10,55.10,55.10,55.10,55.10,55.10,55.10,55.08,55.04,55.00,55.00,55.00,55.00,55.00,55.00,55.00,55.00,55.00,55.00,55.00,55.00,55.00,55.00,55.00,55.00,55.00,55.00,55.00,55.00,55.00,55.00,54.98,54.88,54.59,54.27,54.01,53.81,53.68,53.58,53.46,53.34,53.26,53.17,53.04,52.92,52.83,52.75,52.68,52.60,52.52,52.45,52.37,52.29,52.21,52.14,52.06,51.98,51.91,51.83,51.75,51.67,51.59,51.52,51.44,51.36,51.29,51.22,51.16,51.08,51.05,51.00,50.92,50.85,50.77,50.69,50.67,50.74,50.75,50.79,50.81,50.77,50.64,50.53,50.45,50.35,50.21,50.18,50.12,50.08,50.06,49.99,49.92,49.90,49.88,49.81,49.80,49.80,49.77,49.70,49.70,49.70,49.70,49.71,49.77,49.80,49.84,49.88,49.93,50.18,50.48,50.79,51.07,51.25,51.33,51.44,51.58,51.65,51.73,51.86,51.98,52.06,52.16,52.28,52.39,52.46,52.47,52.48,52.48,52.46,52.41,52.40,52.40,52.40,52.40,52.40,52.40,52.40,52.40,52.40,52.40,52.40,52.40,52.40,52.40,52.40,52.40,52.40,52.38,52.38,52.38,52.36,52.31,52.30,52.30,52.30,52.30,52.30,52.30,52.30,52.30,52.30,52.30,52.30,52.30,52.30,52.30,52.30,52.30,52.30,52.30,52.29,52.27,52.27,52.27,52.22,52.20,52.20,52.20,52.20,52.20,52.20,52.20,52.20,52.20,52.20,52.20,52.20,52.20,52.20,52.20,52.20,52.20,52.20
55.41,55.41,55.40,55.39,55.32,55.24,55.17,55.12,55.12,55.12,55.12,55.12,55.12,55.12,55.12,55.14,55.20,55.21,55.22,55.25,55.30,55.30,55.31,55.36,55.40,55.41,55.41,55.41,55.41,55.40,55.40,55.40,55.40,55.38,55.31,55.30,55.30,55.30,55.30,55.30,55.30,55.26,55.20,55.20,55.20,55.20,55.20,55.20,55.20,55.20,55.20,55.20,55.20,55.19,55.15,55.10,55.10,55.10,55.10,55.10,55.10,55.10,55.10,55.10,55.10,55.10,55.10,55.10,55.10,55.09,55.03,55.01,55.00,55.00,55.00,55.00,55.00,55.00,55.00,55.00,55.00,55.00,55.00,55.00,55.00,55.00,55.00,55.00,55.00,55.00,55.00,55.00,55.00,55.00,54.92,54.70,54.41,54.25,54.10,53.95,53.86,53.72,53.61,53.53,53.44,53.30,53.20,53.09,52.96,52.88,52.80,52.73,52.65,52.57,52.49,52.42,52.34,52.26,52.19,52.11,52.03,51.95,51.88,51.80,51.72,51.64,51.57,51.49,51.41,51.36,51.34,51.26,51.20,51.13,51.05,50.97,50.89,50.82,50.80,50.87,50.87,50.88,50.85,50.78,50.69,50.55,50.45,50.35,50.20,50.13,50.05,50.02,50.00,49.93,49.91,49.90,49.88,49.81,49.80,49.80,49.77,49.70,49.70,49.70,49.70,49.70,49.72,49.77,49.81,49.84,49.92,50.09,50.36,50.66,50.96,51.17,51.23,51.32,51.45,51.53,51.60,51.73,51.86,51.95,52.08,52.19,52.27,52.34,52.40,52.41,52.41,52.41,52.40,52.40,52.40,52.40,52.40,52.40,52.40,52.40,52.40,52.40,52.40,52.40,52.40,52.40,52.40,52.40,52.40,52.39,52.33,52.31,52.31,52.31,52.30,52.30,52.30,52.30,52.30,52.30,52.30,52.30,52.30,52.30,52.30,52.30,52.30,52.30,52.30,52.30,52.30,52.30,52.29,52.24,52.22,52.22,52.21,52.20,52.20,52.20,52.20,52.20,52.20,52.20,52.20,52.20,52.20,52.20,52.20,52.20,52.20,52.20,52.20,52.20,52.20,52.20
55.40,55.40,55.39,55.35,55.31,55.24,55.17,55.10,55.10,55.10,55.10,55.09,55.06,55.09,55.10,55.12,55.15,55.16,55.18,55.22,55.26,55.26,55.28,55.32,55.36,55.40,55.40,55.40,55.40,55.40,55.40,55.40,55.40,55.39,55.35,55.31,55.30,55.30,55.30,55.30,55.30,55.28,55.24,55.21,55.20,55.20,55.20,55.20,55.20,55.20,55.20,55.20,55.20,55.20,55.16,55.10,55.10,55.10,55.10,55.10,55.10,55.10,55.10,55.10,55.10,55.10,55.10,55.10,55.09,55.05,55.01,55.00,55.00,55.00,55.00,55.00,55.00,55.00,55.00,55.00,55.00,55.00,55.00,55.00,55.00,55.00,55.00,55.00,55.00,55.00,55.00,55.00,55.00,55.00,54.89,54.64,54.44,54.33,54.21,54.08,54.00,53.88,53.80,53.71,53.59,53.47,53.36,53.24,53.13,53.06,52.98,52.90,52.82,52.75,52.66,52.59,52.51,52.44,52.36,52.25,52.16,52.08,52.00,51.92,51.85,51.77,51.69,51.61,51.54,51.49,51.48,51.41,51.33,51.25,51.17,51.10,51.02,50.94,50.92,50.99,50.99,50.97,50.91,50.82,50.71,50.59,50.48,50.35,50.20,50.12,50.02,49.95,49.95,49.91,49.90,49.88,49.84,49.81,49.80,49.80,49.77,49.70,49.70,49.70,49.68,49.66,49.70,49.73,49.77,49.83,49.90,49.98,50.20,50.51,50.84,51.09,51.12,51.19,51.33,51.41,51.52,51.63,51.73,51.82,51.97,52.06,52.14,52.23,52.33,52.39,52.40,52.40,52.40,52.40,52.40,52.40,52.40,52.40,52.40,52.40,52.40,52.40,52.40,52.40,52.39,52.36,52.35,52.35,52.35,52.34,52.31,52.30,52.30,52.30,52.30,52.30,52.30,52.30,52.30,52.30,52.30,52.30,52.30,52.30,52.30,52.30,52.30,52.29,52.26,52.26,52.26,52.26,52.25,52.22,52.20,52.20,52.20,52.20,52.20,52.20,52.20,52.20,52.20,52.20,52.20,52.20,52.20,52.20,52.20,52.20,52.20,52.17,52.16,52.16,52.16,52.16
55.39,55.38,55.37,55.31,55.30,55.24,55.17,55.10,55.09,55.09,55.09,55.07,55.02,55.06,55.09,55.09,55.09,55.10,55.15,55.19,55.20,55.21,55.26,55.29,55.32,55.38,55.38,55.39,55.40,55.40,55.40,55.40,55.40,55.40,55.38,55.32,55.30,55.30,55.30,55.30,55.30,55.30,55.28,55.22,55.20,55.20,55.20,55.20,55.20,55.20,55.20,55.20,55.20,55.19,55.15,55.10,55.10,55.10,55.10,55.10,55.10,55.10,55.10,55.10,55.10,55.10,55.10,55.09,55.07,55.01,55.00,55.00,55.00,55.00,55.00,55.00,55.00,55.00,55.00,55.00,55.00,55.00,55.00,55.00,55.00,55.00,55.00,55.00,55.00,55.00,55.00,55.00,55.00,55.00,54.88,54.63,54.54,54.46,54.34,54.20,54.13,54.05,53.97,53.87,53.74,53.64,53.51,53.39,53.30,53.23,53.15,53.08,52.99,52.92,52.84,52.77,52.69,52.61,52.53,52.39,52.28,52.20,52.13,52.05,51.97,51.89,51.81,51.73,51.66,51.62,51.59,51.53,51.45,51.38,51.30,51.22,51.15,51.08,51.06,51.12,51.11,51.04,50.97,50.86,50.72,50.63,50.50,50.35,50.22,50.14,50.00,49.92,49.92,49.90,49.90,49.86,49.81,49.80,49.80,49.80,49.77,49.72,49.70,49.70,49.66,49.62,49.68,49.70,49.74,49.81,49.88,49.90,50.05,50.34,50.71,51.01,51.02,51.07,51.20,51.28,51.43,51.53,51.61,51.70,51.84,51.94,52.02,52.11,52.25,52.35,52.38,52.40,52.40,52.40,52.40,52.40,52.40,52.40,52.40,52.40,52.40,52.39,52.38,52.38,52.36,52.31,52.31,52.31,52.31,52.30,52.30,52.30,52.30,52.30,52.30,52.30,52.30,52.30,52.30,52.30,52.30,52.30,52.30,52.30,52.29,52.29,52.29,52.28,52.22,52.20,52.20,52.20,52.20,52.20,52.20,52.20,52.20,52.20,52.20,52.20,52.20,52.20,52.20,52.20,52.20,52.20,52.20,52.19,52.19,52.19,52.19,52.14,52.10,52.10,52.10,52.10
55.35,55.33,55.32,55.30,55.30,55.24,55.17,55.09,55.04,55.02,55.02,55.02,55.00,55.02,55.02,55.02,55.03,55.09,55.11,55.16,55.20,55.20,55.22,55.26,55.31,55.32,55.33,55.37,55.40,55.40,55.40,55.40,55.40,55.39,55.34,55.31,55.30,55.30,55.30,55.30,55.30,55.30,55.29,55.22,55.20,55.20,55.20,55.20,55.20,55.20,55.20,55.20,55.20,55.15,55.12,55.10,55.10,55.10,55.10,55.10,55.10,55.10,55.10,55.10,55.10,55.10,55.10,55.07,55.02,55.00,55.00,55.00,55.00,55.00,55.00,55.00,55.00,55.00,55.00,55.00,55.00,55.00,55.00,55.00,55.00,55.00,55.00,55.00,55.00,55.00,55.00,55.00,55.00,55.00,54.92,54.75,54.66,54.58,54.47,54.33,54.25,54.17,54.10,54.01,53.91,53.78,53.67,53.56,53.44,53.36,53.28,53.20,53.13,53.05,52.97,52.89,52.81,52.74,52.66,52.52,52.41,52.33,52.25,52.17,52.10,52.00,51.88,51.79,51.76,51.72,51.67,51.65,51.58,51.50,51.42,51.35,51.27,51.23,51.23,51.23,51.18,51.11,51.01,50.87,50.72,50.63,50.50,50.37,50.28,50.20,50.06,49.98,49.96,49.91,49.90,49.89,49.86,49.81,49.80,49.80,49.79,49.77,49.71,49.70,49.66,49.60,49.63,49.68,49.71,49.75,49.83,49.88,49.95,50.15,50.53,50.88,50.94,50.98,51.07,51.16,51.30,51.41,51.48,51.57,51.72,51.81,51.89,51.98,52.13,52.22,52.32,52.40,52.40,52.40,52.40,52.40,52.40,52.40,52.40,52.40,52.39,52.34,52.33,52.33,52.32,52.30,52.30,52.30,52.30,52.30,52.30,52.30,52.30,52.30,52.30,52.30,52.30,52.30,52.30,52.30,52.30,52.30,52.30,52.29,52.25,52.23,52.23,52.22,52.20,52.20,52.20,52.20,52.20,52.20,52.20,52.20,52.20,52.20,52.20,52.20,52.20,52.20,52.20,52.20,52.20,52.20,52.20,52.16,52.13,52.13,52.13,52.11,52.10,52.10,52.10,52.10
55.32,55.30,55.30,55.30,55.27,55.20,55.14,55.09,55.02,54.98,54.97,54.97,54.97,54.97,54.98,55.00,55.01,55.05,55.09,55.13,55.17,55.19,55.20,55.23,55.27,55.30,55.30,55.34,55.38,55.40,55.40,55.38,55.37,55.35,55.31,55.30,55.30,55.30,55.30,55.30,55.28,55.27,55.25,55.21,55.20,55.20,55.20,55.20,55.20,55.20,55.20,55.20,55.20,55.14,55.10,55.10,55.10,55.10,55.10,55.10,55.10,55.10,55.10,55.10,55.10,55.10,55.07,55.04,55.00,55.00,55.00,55.00,55.00,55.00,55.00,55.00,55.00,55.00,55.00,55.00,55.00,55.00,55.00,55.00,55.00,55.00,55.00,55.00,55.00,55.00,55.00,55.00,55.00,54.98,54.93,54.83,54.75,54.67,54.57,54.45,54.38,54.30,54.22,54.15,54.06,53.91,53.81,53.71,53.59,53.49,53.41,53.33,53.25,53.17,53.09,53.02,52.94,52.86,52.75,52.63,52.53,52.45,52.38,52.30,52.20,52.09,51.98,51.89,51.85,51.81,51.77,51.74,51.67,51.61,51.55,51.47,51.40,51.37,51.36,51.32,51.25,51.15,51.03,50.91,50.76,50.66,50.54,50.41,50.33,50.25,50.14,50.06,50.02,49.95,49.91,49.90,49.89,49.84,49.84,49.81,49.80,49.79,49.75,49.71,49.67,49.63,49.61,49.64,49.66,49.69,49.77,49.84,49.89,50.03,50.36,50.75,50.83,50.87,50.96,51.06,51.19,51.28,51.37,51.48,51.60,51.69,51.78,51.89,52.01,52.10,52.22,52.34,52.37,52.39,52.40,52.40,52.39,52.37,52.37,52.37,52.35,52.31,52.30,52.30,52.30,52.30,52.30,52.30,52.30,52.30,52.30,52.30,52.30,52.30,52.30,52.30,52.30,52.30,52.29,52.27,52.27,52.27,52.27,52.26,52.22,52.20,52.20,52.20,52.20,52.20,52.20,52.20,52.20,52.20,52.20,52.20,52.20,52.20,52.20,52.20,52.20,52.20,52.18,52.16,52.16,52.16,52.16,52.13,52.10,52.10,52.10,52.10,52.10,52.10,52.10,52.10
55.30,55.30,55.30,55.29,55.22,55.15,55.10,55.08,55.01,54.94,54.91,54.91,54.91,54.91,54.95,55.00,55.00,55.01,55.06,55.10,55.13,55.18,55.20,55.20,55.23,55.28,55.30,55.31,55.34,55.39,55.39,55.34,55.31,55.31,55.30,55.30,55.30,55.30,55.29,55.29,55.24,55.21,55.21,55.20,55.20,55.20,55.20,55.20,55.20,55.20,55.20,55.20,55.19,55.14,55.10,55.10,55.10,55.10,55.10,55.10,55.10,55.10,55.10,55.10,55.10,55.09,55.03,55.00,55.00,55.00,55.00,55.00,55.00,55.00,55.00,55.00,55.00,55.00,55.00,55.00,55.00,55.00,55.00,55.00,55.00,55.00,55.00,55.00,55.00,55.00,55.00,55.00,55.00,54.95,54.90,54.88,54.80,54.72,54.64,54.56,54.49,54.41,54.33,54.26,54.17,54.03,53.94,53.86,53.77,53.63,53.54,53.45,53.38,53.30,53.22,53.14,53.07,52.98,52.84,52.74,52.66,52.58,52.50,52.42,52.30,52.18,52.09,52.02,51.94,51.90,51.88,51.81,51.74,51.70,51.67,51.60,51.52,51.50,51.46,51.39,51.31,51.18,51.06,50.97,50.82,50.72,50.61,50.48,50.39,50.32,50.24,50.16,50.08,50.01,49.94,49.90,49.90,49.89,49.89,49.84,49.80,49.80,49.79,49.74,49.70,49.67,49.61,49.60,49.61,49.63,49.71,49.78,49.85,49.96,50.19,50.60,50.70,50.75,50.84,50.98,51.08,51.16,51.26,51.40,51.48,51.56,51.68,51.81,51.89,51.97,52.10,52.23,52.30,52.37,52.39,52.39,52.38,52.32,52.31,52.31,52.31,52.30,52.30,52.30,52.30,52.30,52.30,52.30,52.30,52.30,52.30,52.30,52.30,52.30,52.30,52.29,52.29,52.29,52.28,52.22,52.21,52.21,52.21,52.21,52.20,52.20,52.20,52.20,52.20,52.20,52.20,52.20,52.20,52.20,52.20,52.20,52.20,52.20,52.20,52.20,52.20,52.19,52.14,52.11,52.11,52.11,52.11,52.10,52.10,52.10,52.10,52.10,52.10,52.10,52.10,52.10
55.30,55.30,55.29,55.24,55.21,55.14,55.08,55.03,54.95,54.91,54.90,54.90,54.90,54.90,54.92,54.96,55.00,55.00,55.06,55.10,55.11,55.14,55.18,55.20,55.21,55.24,55.29,55.30,55.31,55.34,55.34,55.31,55.30,55.30,55.30,55.30,55.30,55.28,55.24,55.23,55.21,55.20,55.20,55.20,55.20,55.20,55.20,55.20,55.20,55.20,55.18,55.14,55.13,55.11,55.10,55.10,55.10,55.10,55.10,55.10,55.10,55.10,55.10,55.10,55.09,55.05,55.01,55.00,55.00,55.00,55.00,55.00,55.00,55.00,55.00,55.00,55.00,55.00,55.00,55.00,55.00,55.00,55.00,55.00,55.00,55.00,55.00,55.00,55.00,55.00,55.00,55.00,55.00,54.95,54.88,54.83,54.75,54.67,54.62,54.58,54.51,54.43,54.35,54.29,54.25,54.15,54.06,53.99,53.90,53.80,53.72,53.61,53.50,53.42,53.35,53.27,53.19,53.10,52.95,52.86,52.78,52.70,52.63,52.55,52.43,52.30,52.22,52.14,52.06,52.00,51.96,51.92,51.86,51.80,51.75,51.72,51.65,51.59,51.53,51.45,51.38,51.23,51.13,51.03,50.88,50.79,50.69,50.58,50.47,50.39,50.31,50.22,50.15,50.08,50.00,49.94,49.90,49.90,49.90,49.85,49.80,49.80,49.80,49.74,49.70,49.68,49.61,49.56,49.56,49.61,49.65,49.72,49.80,49.89,50.05,50.44,50.60,50.66,50.72,50.86,50.95,51.03,51.14,51.27,51.36,51.44,51.55,51.69,51.77,51.85,51.97,52.10,52.19,52.30,52.34,52.34,52.33,52.31,52.30,52.30,52.30,52.30,52.30,52.30,52.30,52.30,52.30,52.30,52.30,52.30,52.30,52.30,52.30,52.30,52.29,52.25,52.23,52.23,52.23,52.21,52.20,52.20,52.20,52.20,52.20,52.20,52.20,52.20,52.20,52.20,52.20,52.20,52.20,52.20,52.20,52.20,52.20,52.20,52.16,52.13,52.13,52.13,52.11,52.10,52.10,52.10,52.10,52.10,52.10,52.10,52.10,52.10,52.10,52.10,52.10,52.10
55.28,55.27,55.26,55.21,55.20,55.14,55.07,54.99,54.91,54.90,54.90,54.90,54.90,54.90,54.90,54.93,55.00,55.00,55.05,55.08,55.10,55.11,55.15,55.19,55.20,55.21,55.26,55.29,55.30,55.30,55.30,55.30,55.30,55.30,55.30,55.30,55.29,55.25,55.20,55.20,55.20,55.20,55.20,55.20,55.20,55.20,55.20,55.20,55.20,55.19,55.15,55.10,55.10,55.10,55.10,55.10,55.10,55.10,55.10,55.10,55.10,55.10,55.10,55.10,55.09,55.02,55.00,55.00,55.00,55.00,55.00,55.00,55.00,55.00,55.00,55.00,55.00,55.00,55.00,55.00,55.00,55.00,55.00,55.00,55.00,55.00,55.00,54.98,54.98,54.98,54.98,54.98,54.98,54.92,54.84,54.77,54.69,54.63,54.59,54.56,54.48,54.41,54.34,54.29,54.27,54.20,54.11,54.05,53.99,53.91,53.82,53.71,53.60,53.53,53.47,53.40,53.31,53.21,53.07,52.98,52.91,52.83,52.75,52.66,52.54,52.42,52.34,52.27,52.18,52.10,52.05,52.02,51.95,51.89,51.84,51.82,51.75,51.67,51.59,51.49,51.41,51.29,51.19,51.09,50.95,50.85,50.78,50.67,50.53,50.45,50.36,50.29,50.22,50.14,50.06,49.98,49.92,49.90,49.90,49.86,49.82,49.80,49.80,49.74,49.70,49.68,49.61,49.55,49.55,49.58,49.61,49.68,49.76,49.83,49.93,50.23,50.48,50.57,50.59,50.74,50.83,50.92,51.03,51.16,51.23,51.33,51.44,51.57,51.65,51.74,51.86,51.98,52.06,52.21,52.27,52.29,52.30,52.30,52.30,52.30,52.30,52.30,52.30,52.30,52.30,52.30,52.30,52.30,52.30,52.30,52.28,52.27,52.27,52.27,52.27,52.22,52.20,52.20,52.20,52.20,52.20,52.20,52.20,52.20,52.20,52.20,52.20,52.20,52.20,52.20,52.20,52.20,52.20,52.19,52.17,52.17,52.17,52.17,52.14,52.10,52.10,52.10,52.10,52.10,52.10,52.10,52.10,52.10,52.10,52.10,52.10,52.10,52.10,52.10,52.10,52.10
55.24,55.22,55.21,55.20,55.20,55.14,55.07,54.99,54.91,54.90,54.90,54.90,54.90,54.90,54.90,54.93,54.99,55.00,55.01,55.05,55.10,55.10,55.11,55.16,55.20,55.20,55.21,55.26,55.30,55.30,55.30,55.30,55.30,55.30,55.30,55.30,55.26,55.21,55.20,55.20,55.20,55.20,55.20,55.20,55.20,55.20,55.20,55.20,55.20,55.15,55.11,55.10,55.10,55.10,55.10,55.10,55.10,55.10,55.10,55.10,55.10,55.10,55.10,55.10,55.09,55.02,55.00,55.00,55.00,55.00,55.00,55.00,55.00,55.00,55.00,55.00,55.00,55.00,55.00,55.00,55.00,55.00,55.00,55.00,55.00,55.00,54.99,54.93,54.91,54.91,54.91,54.91,54.91,54.86,54.78,54.70,54.63,54.61,54.57,54.50,54.42,54.34,54.31,54.27,54.21,54.13,54.05,54.01,53.98,53.91,53.77,53.70,53.66,53.59,53.57,53.52,53.41,53.28,53.19,53.11,53.03,52.95,52.88,52.74,52.63,52.55,52.47,52.39,52.27,52.18,52.16,52.09,52.02,51.98,51.95,51.89,51.81,51.73,51.63,51.50,51.42,51.33,51.25,51.15,51.01,50.91,50.84,50.73,50.59,50.50,50.43,50.35,50.28,50.20,50.12,50.04,49.97,49.91,49.90,49.89,49.86,49.81,49.80,49.74,49.70,49.68,49.62,49.59,49.55,49.53,49.60,49.68,49.76,49.81,49.84,49.97,50.33,50.47,50.47,50.61,50.70,50.82,50.94,51.03,51.11,51.24,51.35,51.44,51.52,51.66,51.76,51.85,51.94,52.08,52.17,52.24,52.30,52.30,52.30,52.30,52.30,52.30,52.30,52.30,52.30,52.30,52.30,52.30,52.30,52.28,52.23,52.22,52.22,52.22,52.21,52.20,52.20,52.20,52.20,52.20,52.20,52.20,52.20,52.20,52.20,52.20,52.20,52.20,52.20,52.20,52.20,52.20,52.20,52.14,52.12,52.12,52.12,52.12,52.11,52.10,52.10,52.10,52.10,52.10,52.10,52.10,52.10,52.10,52.10,52.10,52.10,52.10,52.10,52.10,52.10,52.10
55.22,55.20,55.20,55.20,55.16,55.12,55.07,54.99,54.91,54.90,54.90,54.90,54.90,54.90,54.90,54.92,54.95,54.99,55.00,55.02,55.06,55.09,55.10,55.12,55.16,55.19,55.20,55.23,55.25,55.26,55.29,55.30,55.30,55.29,55.26,55.25,55.23,55.20,55.20,55.20,55.20,55.20,55.20,55.20,55.20,55.20,55.19,55.16,55.15,55.12,55.10,55.10,55.10,55.10,55.10,55.10,55.10,55.10,55.10,55.10,55.10,55.10,55.10,55.08,55.04,55.01,55.00,55.00,55.00,55.00,55.00,55.00,55.00,55.00,55.00,55.00,55.00,55.00,55.00,55.00,55.00,55.00,55.00,55.00,55.00,54.98,54.94,54.91,54.90,54.90,54.90,54.89,54.86,54.80,54.73,54.69,54.62,54.57,54.51,54.44,54.40,54.33,54.28,54.22,54.15,54.11,54.04,53.98,53.94,53.86,53.72,53.63,53.58,53.51,53.50,53.45,53.37,53.29,53.22,53.17,53.11,53.03,52.95,52.84,52.75,52.67,52.59,52.48,52.36,52.28,52.24,52.20,52.13,52.08,52.03,51.95,51.84,51.75,51.66,51.54,51.47,51.39,51.31,51.22,51.07,50.98,50.91,50.80,50.66,50.57,50.50,50.41,50.33,50.26,50.19,50.10,50.03,49.96,49.91,49.90,49.88,49.84,49.81,49.77,49.73,49.68,49.62,49.60,49.55,49.51,49.56,49.63,49.71,49.77,49.81,49.90,50.13,50.29,50.38,50.50,50.58,50.70,50.83,50.91,50.99,51.12,51.24,51.32,51.40,51.54,51.65,51.73,51.81,51.96,52.06,52.15,52.25,52.29,52.30,52.30,52.30,52.30,52.30,52.30,52.30,52.29,52.26,52.25,52.25,52.24,52.21,52.20,52.20,52.20,52.20,52.20,52.20,52.20,52.20,52.20,52.20,52.20,52.20,52.20,52.20,52.20,52.20,52.20,52.20,52.17,52.15,52.15,52.15,52.12,52.10,52.10,52.10,52.10,52.10,52.10,52.10,52.10,52.10,52.10,52.10,52.10,52.10,52.10,52.10,52.10,52.10,52.10,52.08,52.05,52.05,52.05
55.20,55.19,55.19,55.18,55.12,55.10,55.06,54.98,54.91,54.90,54.90,54.90,54.90,54.90,54.90,54.90,54.91,54.97,54.99,55.00,55.02,55.08,55.10,55.10,55.12,55.18,55.20,55.20,55.20,55.21,55.27,55.29,55.29,55.27,55.21,55.20,55.20,55.20,55.20,55.20,55.20,55.20,55.20,55.20,55.20,55.19,55.17,55.11,55.10,55.10,55.10,55.10,55.10,55.10,55.10,55.10,55.10,55.10,55.10,55.10,55.10,55.09,55.09,55.05,55.00,55.00,55.00,55.00,55.00,55.00,55.00,55.00,55.00,55.00,55.00,55.00,55.00,55.00,55.00,55.00,55.00,55.00,55.00,55.00,54.99,54.96,54.90,54.89,54.90,54.90,54.90,54.88,54.82,54.75,54.70,54.67,54.60,54.53,54.46,54.40,54.38,54.31,54.24,54.18,54.11,54.09,54.03,53.95,53.88,53.79,53.66,53.55,53.47,53.40,53.38,53.32,53.27,53.26,53.19,53.17,53.13,53.06,52.99,52.91,52.83,52.76,52.69,52.56,52.47,52.39,52.33,52.31,52.25,52.16,52.08,51.99,51.86,51.76,51.69,51.60,51.53,51.45,51.38,51.28,51.13,51.04,50.97,50.86,50.72,50.64,50.56,50.47,50.40,50.33,50.25,50.17,50.09,50.02,49.94,49.91,49.90,49.88,49.82,49.80,49.76,49.68,49.63,49.60,49.55,49.50,49.51,49.57,49.65,49.72,49.80,49.88,49.96,50.11,50.28,50.37,50.45,50.58,50.70,50.78,50.87,51.00,51.11,51.19,51.28,51.42,51.52,51.60,51.70,51.84,51.93,52.04,52.18,52.26,52.28,52.29,52.30,52.29,52.29,52.29,52.29,52.27,52.22,52.20,52.20,52.20,52.20,52.20,52.20,52.20,52.20,52.20,52.20,52.20,52.20,52.20,52.20,52.20,52.20,52.20,52.19,52.19,52.19,52.19,52.19,52.14,52.10,52.10,52.10,52.10,52.10,52.10,52.10,52.10,52.10,52.10,52.10,52.10,52.10,52.10,52.10,52.10,52.10,52.09,52.09,52.09,52.09,52.09,52.05,52.00,52.00,52.00
55.20,55.16,55.13,55.12,55.10,55.10,55.04,54.93,54.90,54.90,54.90,54.90,54.90,54.90,54.90,54.90,54.90,54.92,54.97,55.00,55.00,55.03,55.07,55.10,55.10,55.13,55.19,55.20,55.20,55.20,55.22,55.23,55.23,55.22,55.20,55.20,55.20,55.20,55.20,55.20,55.20,55.20,55.20,55.20,55.20,55.17,55.12,55.10,55.10,55.10,55.10,55.10,55.10,55.10,55.10,55.10,55.10,55.10,55.10,55.10,55.09,55.04,55.02,55.02,55.00,55.00,55.00,55.00,55.00,55.00,55.00,55.00,55.00,55.00,55.00,55.00,55.00,55.00,55.00,55.00,55.00,55.00,55.00,55.00,54.96,54.91,54.89,54.84,54.88,54.90,54.89,54.83,54.81,54.75,54.68,54.61,54.54,54.51,54.46,54.39,54.33,54.25,54.21,54.17,54.10,54.04,53.97,53.89,53.81,53.73,53.59,53.48,53.41,53.33,53.27,53.20,53.15,53.13,53.07,53.05,53.01,52.95,52.92,52.86,52.78,52.72,52.70,52.66,52.59,52.52,52.44,52.38,52.31,52.20,52.08,52.00,51.91,51.83,51.75,51.66,51.59,51.52,51.44,51.34,51.20,51.10,51.03,50.92,50.78,50.70,50.61,50.54,50.47,50.39,50.31,50.23,50.16,50.08,50.00,49.94,49.90,49.88,49.82,49.80,49.76,49.70,49.67,49.62,49.55,49.50,49.50,49.52,49.59,49.66,49.73,49.81,49.89,49.99,50.11,50.24,50.33,50.45,50.58,50.67,50.79,50.90,50.99,51.08,51.21,51.31,51.40,51.49,51.62,51.72,51.81,51.92,52.06,52.14,52.20,52.26,52.28,52.23,52.23,52.23,52.23,52.22,52.20,52.20,52.20,52.20,52.20,52.20,52.20,52.20,52.20,52.20,52.20,52.20,52.20,52.20,52.20,52.20,52.20,52.20,52.15,52.13,52.13,52.13,52.13,52.11,52.10,52.10,52.10,52.10,52.10,52.10,52.10,52.10,52.10,52.10,52.10,52.10,52.10,52.10,52.10,52.10,52.10,52.06,52.02,52.02,52.02,52.02,52.02,52.00,52.00,52.00
55.17,55.13,55.09,55.07,55.06,55.06,55.01,54.91,54.90,54.90,54.90,54.90,54.90,54.90,54.90,54.90,54.90,54.90,54.94,54.98,55.00,55.00,55.04,55.08,55.10,55.11,55.15,55.16,55.17,55.20,55.20,55.20,55.20,55.20,55.20,55.20,55.20,55.20,55.20,55.20,55.20,55.20,55.19,55.17,55.16,55.13,55.10,55.10,55.10,55.10,55.10,55.10,55.10,55.10,55.10,55.10,55.10,55.10,55.10,55.09,55.06,55.01,55.00,55.00,55.00,55.00,55.00,55.00,55.00,55.00,55.00,55.00,55.00,55.00,55.00,55.00,55.00,55.00,55.00,55.00,55.00,54.99,54.97,54.97,54.93,54.89,54.85,54.81,54.84,54.87,54.85,54.80,54.77,54.70,54.64,54.59,54.52,54.48,54.42,54.35,54.30,54.23,54.18,54.13,54.06,53.98,53.91,53.82,53.75,53.67,53.53,53.41,53.33,53.23,53.15,53.09,53.05,53.02,52.97,52.94,52.89,52.83,52.82,52.75,52.69,52.65,52.63,52.63,52.57,52.50,52.45,52.40,52.33,52.23,52.11,52.04,51.97,51.86,51.77,51.69,51.62,51.54,51.46,51.37,51.25,51.16,51.09,50.98,50.84,50.75,50.68,50.60,50.53,50.45,50.38,50.29,50.22,50.14,50.06,49.98,49.93,49.89,49.85,49.81,49.77,49.73,49.70,49.63,49.57,49.53,49.50,49.47,49.52,49.59,49.67,49.75,49.83,49.91,49.99,50.09,50.21,50.34,50.45,50.54,50.69,50.79,50.86,50.96,51.11,51.20,51.27,51.37,51.52,51.60,51.68,51.79,51.93,52.01,52.11,52.21,52.25,52.21,52.20,52.20,52.20,52.20,52.20,52.20,52.20,52.20,52.20,52.20,52.20,52.20,52.20,52.20,52.20,52.20,52.20,52.20,52.18,52.16,52.16,52.16,52.12,52.10,52.10,52.10,52.10,52.10,52.10,52.10,52.10,52.10,52.10,52.10,52.10,52.10,52.10,52.10,52.10,52.10,52.10,52.09,52.06,52.06,52.06,52.03,52.00,52.00,52.00,52.00,52.00,52.00,52.00,52.00
55.14,55.10,55.07,55.02,55.01,55.01,54.97,54.91,54.90,54.90,54.90,54.90,54.90,54.90,54.90,54.90,54.90,54.90,54.91,54.94,55.00,55.00,55.00,55.05,55.10,55.10,55.10,55.11,55.13,55.19,55.19,55.20,55.20,55.20,55.20,55.20,55.20,55.20,55.20,55.20,55.20,55.19,55.18,55.12,55.11,55.10,55.10,55.10,55.10,55.10,55.10,55.10,55.10,55.10,55.10,55.10,55.10,55.10,55.10,55.07,55.01,55.00,55.00,55.00,55.00,55.00,55.00,55.00,55.00,55.00,55.00,55.00,55.00,55.00,55.00,55.00,55.00,55.00,55.00,55.00,55.00,54.97,54.91,54.91,54.90,54.86,54.81,54.80,54.81,54.81,54.80,54.79,54.73,54.66,54.60,54.58,54.51,54.44,54.37,54.30,54.29,54.22,54.15,54.08,54.01,53.93,53.85,53.77,53.69,53.61,53.47,53.36,53.26,53.12,53.03,53.00,52.97,52.91,52.89,52.84,52.76,52.71,52.70,52.63,52.60,52.57,52.50,52.50,52.44,52.40,52.39,52.38,52.32,52.24,52.16,52.09,52.02,51.90,51.78,51.70,51.62,51.55,51.47,51.39,51.31,51.23,51.16,51.05,50.91,50.82,50.75,50.67,50.59,50.52,50.44,50.35,50.28,50.20,50.13,50.04,49.97,49.91,49.90,49.84,49.80,49.77,49.71,49.63,49.60,49.57,49.50,49.43,49.46,49.53,49.61,49.69,49.77,49.84,49.91,49.94,50.12,50.24,50.33,50.42,50.56,50.66,50.74,50.83,50.98,51.07,51.15,51.25,51.39,51.48,51.56,51.67,51.81,51.89,52.02,52.13,52.19,52.19,52.20,52.20,52.20,52.20,52.20,52.20,52.20,52.20,52.20,52.20,52.20,52.20,52.20,52.19,52.19,52.19,52.19,52.19,52.14,52.11,52.11,52.11,52.10,52.10,52.10,52.10,52.10,52.10,52.10,52.10,52.10,52.10,52.10,52.10,52.10,52.10,52.10,52.09,52.09,52.09,52.09,52.06,52.01,52.01,52.01,52.00,52.00,52.00,52.00,52.00,52.00,52.00,52.00,52.00
55.13,55.07,55.03,55.00,55.00,54.96,54.93,54.90,54.90,54.90,54.90,54.90,54.90,54.90,54.90,54.90,54.90,54.90,54.90,54.94,55.00,55.00,55.00,55.05,55.10,55.10,55.10,55.10,55.11,55.13,55.14,55.18,55.20,55.20,55.20,55.20,55.20,55.20,55.20,55.20,55.16,55.13,55.13,55.10,55.10,55.10,55.10,55.10,55.10,55.10,55.10,55.10,55.10,55.10,55.10,55.10,55.10,55.10,55.07,55.03,55.00,55.00,55.00,55.00,55.00,55.00,55.00,55.00,55.00,55.00,55.00,55.00,55.00,55.00,55.00,55.00,55.00,55.00,55.00,55.00,54.97,54.93,54.90,54.90,54.86,54.82,54.80,54.80,54.80,54.80,54.79,54.74,54.71,54.65,54.58,54.53,54.45,54.41,54.36,54.29,54.24,54.16,54.12,54.07,54.00,53.92,53.84,53.77,53.68,53.55,53.45,53.33,53.19,53.05,52.96,52.90,52.84,52.78,52.77,52.71,52.66,52.63,52.58,52.55,52.51,52.45,52.38,52.38,52.32,52.28,52.28,52.27,52.25,52.20,52.13,52.09,52.02,51.93,51.83,51.75,51.67,51.60,51.53,51.45,51.37,51.29,51.22,51.12,50.97,50.89,50.84,50.77,50.66,50.58,50.50,50.42,50.34,50.27,50.19,50.11,50.03,49.96,49.91,49.88,49.84,49.78,49.71,49.67,49.63,49.58,49.50,49.42,49.42,49.47,49.55,49.63,49.71,49.78,49.85,49.90,49.98,50.09,50.20,50.29,50.44,50.54,50.61,50.71,50.85,50.94,51.05,51.17,51.27,51.35,51.47,51.58,51.68,51.77,51.90,52.02,52.08,52.13,52.18,52.20,52.20,52.20,52.20,52.20,52.20,52.20,52.20,52.20,52.20,52.20,52.19,52.15,52.13,52.13,52.13,52.13,52.11,52.10,52.10,52.10,52.10,52.10,52.10,52.10,52.10,52.10,52.10,52.10,52.10,52.10,52.10,52.10,52.10,52.10,52.06,52.04,52.04,52.04,52.04,52.02,52.00,52.00,52.00,52.00,52.00,52.00,52.00,52.00,52.00,52.00,52.00,52.00
55.12,55.05,55.00,55.00,54.98,54.93,54.90,54.90,54.90,54.90,54.90,54.90,54.90,54.90,54.90,54.90,54.90,54.90,54.90,54.93,54.98,55.00,55.00,55.04,55.08,55.08,55.09,55.10,55.10,55.10,55.10,55.15,55.17,55.18,55.20,55.20,55.19,55.17,55.17,55.17,55.13,55.10,55.10,55.10,55.10,55.10,55.10,55.10,55.10,55.10,55.10,55.10,55.10,55.10,55.10,55.09,55.08,55.08,55.04,55.00,55.00,55.00,55.00,55.00,55.00,55.00,55.00,55.00,55.00,55.00,55.00,55.00,55.00,55.00,55.00,55.00,55.00,54.99,54.98,54.98,54.94,54.90,54.90,54.88,54.83,54.80,54.80,54.78,54.79,54.80,54.78,54.71,54.68,54.62,54.55,54.49,54.41,54.38,54.33,54.26,54.20,54.13,54.09,54.05,53.97,53.89,53.81,53.74,53.65,53.52,53.41,53.28,53.13,52.98,52.89,52.81,52.73,52.68,52.65,52.59,52.55,52.53,52.46,52.45,52.40,52.32,52.26,52.25,52.19,52.15,52.15,52.15,52.15,52.11,52.08,52.06,52.00,51.94,51.87,51.79,51.72,51.64,51.56,51.48,51.41,51.33,51.26,51.17,51.04,50.97,50.94,50.86,50.72,50.64,50.56,50.48,50.41,50.33,50.25,50.17,50.09,50.02,49.95,49.91,49.86,49.79,49.73,49.70,49.66,49.60,49.53,49.45,49.41,49.42,49.48,49.56,49.64,49.72,49.80,49.87,49.90,49.99,50.11,50.19,50.32,50.41,50.49,50.60,50.73,50.82,50.94,51.07,51.15,51.23,51.36,51.48,51.56,51.64,51.78,51.89,51.97,52.07,52.15,52.19,52.20,52.20,52.20,52.20,52.20,52.20,52.20,52.18,52.17,52.17,52.17,52.12,52.10,52.10,52.10,52.10,52.10,52.10,52.10,52.10,52.10,52.10,52.10,52.10,52.10,52.10,52.10,52.10,52.10,52.10,52.09,52.08,52.08,52.08,52.04,52.00,52.00,52.00,52.00,52.00,52.00,52.00,52.00,52.00,52.00,52.00,52.00,52.00,52.00,52.00,52.00,52.00
55.10,55.05,55.00,54.99,54.93,54.91,54.90,54.90,54.90,54.90,54.90,54.90,54.90,54.90,54.90,54.90,54.90,54.90,54.90,54.91,54.93,54.99,55.00,55.01,55.02,55.02,55.08,55.10,55.10,55.10,55.10,55.11,55.12,55.13,55.19,55.20,55.16,55.12,55.12,55.12,55.11,55.10,55.10,55.10,55.10,55.10,55.10,55.10,55.10,55.10,55.10,55.10,55.10,55.10,55.10,55.08,55.02,55.02,55.01,55.00,55.00,55.00,55.00,55.00,55.00,55.00,55.00,55.00,55.00,55.00,55.00,55.00,55.00,55.00,55.00,55.00,55.00,54.98,54.92,54.91,54.91,54.90,54.89,54.83,54.81,54.80,54.78,54.73,54.77,54.80,54.77,54.70,54.63,54.56,54.51,54.48,54.41,54.34,54.28,54.21,54.20,54.12,54.06,53.98,53.91,53.83,53.75,53.67,53.59,53.51,53.37,53.23,53.07,52.92,52.83,52.71,52.62,52.60,52.54,52.46,52.42,52.41,52.34,52.32,52.27,52.20,52.13,52.12,52.07,52.02,52.02,52.02,52.02,52.02,52.01,52.00,51.94,51.91,51.87,51.79,51.72,51.64,51.56,51.48,51.41,51.33,51.29,51.23,51.10,51.08,51.02,50.92,50.78,50.70,50.63,50.54,50.47,50.39,50.31,50.23,50.16,50.08,50.00,49.93,49.87,49.80,49.78,49.73,49.69,49.66,49.58,49.50,49.44,49.40,49.43,49.50,49.58,49.66,49.73,49.81,49.88,49.96,50.04,50.12,50.21,50.29,50.40,50.52,50.61,50.69,50.82,50.95,51.02,51.10,51.23,51.36,51.43,51.52,51.66,51.77,51.86,52.00,52.08,52.15,52.20,52.20,52.20,52.20,52.20,52.20,52.20,52.14,52.12,52.12,52.11,52.10,52.10,52.10,52.10,52.10,52.10,52.10,52.10,52.10,52.10,52.10,52.10,52.10,52.10,52.10,52.10,52.10,52.10,52.10,52.06,52.02,52.02,52.02,52.01,52.00,52.00,52.00,52.00,52.00,52.00,52.00,52.00,52.00,52.00,52.00,52.00,52.00,52.00,52.00,52.00,52.00
55.10,55.05,54.99,54.95,54.91,54.90,54.90,54.90,54.90,54.90,54.90,54.90,54.90,54.90,54.90,54.90,54.90,54.90,54.90,54.90,54.91,54.98,55.00,55.00,55.00,55.00,55.04,55.05,55.06,55.10,55.10,55.10,55.10,55.11,55.14,55.14,55.12,55.10,55.10,55.10,55.10,55.10,55.10,55.10,55.10,55.10,55.10,55.10,55.10,55.10,55.10,55.10,55.10,55.10,55.08,55.04,55.01,55.00,55.00,55.00,55.00,55.00,55.00,55.00,55.00,55.00,55.00,55.00,55.00,55.00,55.00,55.00,55.00,55.00,55.00,54.96,54.95,54.94,54.91,54.90,54.88,54.84,54.84,54.81,54.80,54.78,54.74,54.71,54.73,54.74,54.72,54.65,54.61,54.55,54.48,54.44,54.36,54.32,54.26,54.19,54.15,54.07,54.00,53.92,53.84,53.77,53.69,53.61,53.53,53.45,53.31,53.16,53.02,52.90,52.79,52.64,52.53,52.48,52.41,52.37,52.33,52.29,52.25,52.21,52.15,52.08,52.05,52.01,51.97,51.93,51.90,51.90,51.90,51.90,51.90,51.89,51.86,51.84,51.82,51.75,51.71,51.64,51.56,51.48,51.41,51.33,51.30,51.26,51.16,51.11,51.04,50.95,50.84,50.77,50.69,50.60,50.52,50.41,50.36,50.30,50.22,50.14,50.06,49.99,49.91,49.84,49.80,49.77,49.73,49.67,49.60,49.52,49.44,49.38,49.36,49.44,49.52,49.59,49.67,49.75,49.83,49.90,49.97,50.05,50.14,50.21,50.31,50.41,50.49,50.57,50.69,50.82,50.91,51.02,51.13,51.23,51.32,51.43,51.55,51.64,51.74,51.88,51.97,52.05,52.13,52.19,52.16,52.14,52.14,52.14,52.14,52.12,52.10,52.10,52.10,52.10,52.10,52.10,52.10,52.10,52.10,52.10,52.10,52.10,52.10,52.10,52.10,52.10,52.10,52.07,52.05,52.05,52.05,52.05,52.02,52.00,52.00,52.00,52.00,52.00,52.00,52.00,52.00,52.00,52.00,52.00,52.00,52.00,52.00,52.00,52.00,52.00,52.02,52.05,52.05,52.05
55.09,55.04,54.98,54.91,54.90,54.90,54.90,54.90,54.90,54.90,54.90,54.90,54.90,54.90,54.90,54.90,54.90,54.90,54.90,54.90,54.91,54.97,55.00,55.00,55.00,55.00,55.00,55.00,55.03,55.09,55.10,55.11,55.12,55.11,55.10,55.10,55.10,55.10,55.10,55.10,55.10,55.10,55.10,55.10,55.10,55.10,55.10,55.10,55.10,55.10,55.10,55.10,55.10,55.09,55.05,55.00,55.00,55.00,55.00,55.00,55.00,55.00,55.00,55.00,55.00,55.00,55.00,55.00,55.00,55.00,55.00,55.00,54.99,54.98,54.98,54.93,54.90,54.90,54.90,54.89,54.84,54.80,54.80,54.80,54.79,54.75,54.70,54.70,54.70,54.70,54.68,54.61,54.59,54.53,54.46,54.39,54.32,54.29,54.25,54.16,54.09,54.02,53.94,53.86,53.78,53.70,53.63,53.55,53.47,53.39,53.25,53.10,52.98,52.88,52.73,52.58,52.45,52.38,52.29,52.27,52.23,52.17,52.16,52.10,52.03,51.98,51.96,51.89,51.87,51.84,51.78,51.77,51.77,51.77,51.77,51.78,51.77,51.77,51.74,51.69,51.69,51.63,51.55,51.47,51.39,51.31,51.28,51.24,51.17,51.10,51.03,50.95,50.88,50.81,50.73,50.66,50.56,50.44,50.41,50.36,50.28,50.20,50.13,50.06,49.97,49.89,49.83,49.80,49.75,49.67,49.60,49.53,49.45,49.39,49.33,49.38,49.46,49.53,49.61,49.69,49.76,49.84,49.92,50.00,50.07,50.15,50.22,50.30,50.38,50.46,50.58,50.70,50.78,50.93,51.03,51.10,51.19,51.34,51.44,51.51,51.61,51.76,51.85,51.93,52.04,52.15,52.11,52.10,52.10,52.10,52.10,52.10,52.10,52.10,52.10,52.10,52.10,52.10,52.10,52.10,52.10,52.10,52.10,52.10,52.10,52.09,52.09,52.09,52.09,52.03,52.00,52.00,52.00,52.00,52.00,52.00,52.00,52.00,52.00,52.00,52.00,52.00,52.00,52.00,52.00,52.00,52.00,52.00,52.00,52.02,52.02,52.02,52.05,52.11,52.12,52.13
55.05,55.01,54.98,54.91,54.90,54.90,54.90,54.90,54.90,54.90,54.90,54.90,54.90,54.90,54.90,54.90,54.90,54.90,54.90,54.90,54.90,54.93,54.98,55.00,55.00,55.00,55.00,55.00,55.03,55.09,55.10,55.15,55.17,55.16,55.11,55.10,55.10,55.10,55.10,55.10,55.10,55.10,55.10,55.10,55.10,55.10,55.10,55.10,55.10,55.10,55.10,55.10,55.10,55.05,55.02,55.00,55.00,55.00,55.00,55.00,55.00,55.00,55.00,55.00,55.00,55.00,55.00,55.00,55.00,55.00,55.00,55.00,54.98,54.93,54.92,54.91,54.90,54.90,54.89,54.84,54.81,54.80,54.80,54.80,54.75,54.72,54.70,54.70,54.70,54.70,54.68,54.60,54.54,54.47,54.41,54.38,54.31,54.25,54.19,54.11,54.03,53.95,53.88,53.80,53.72,53.64,53.56,53.48,53.41,53.33,53.19,53.07,52.96,52.82,52.67,52.52,52.39,52.31,52.18,52.15,52.11,52.05,52.04,51.98,51.93,51.90,51.84,51.77,51.75,51.71,51.65,51.65,51.65,51.65,51.66,51.71,51.66,51.65,51.64,51.63,51.62,51.56,51.48,51.41,51.33,51.25,51.19,51.12,51.05,51.03,50.97,50.89,50.83,50.80,50.73,50.66,50.58,50.49,50.48,50.42,50.34,50.27,50.20,50.11,50.03,49.96,49.89,49.83,49.75,49.67,49.61,49.58,49.52,49.45,49.37,49.34,49.39,49.47,49.55,49.62,49.69,49.78,49.86,49.93,50.00,50.09,50.16,50.23,50.31,50.40,50.48,50.57,50.66,50.80,50.90,50.98,51.07,51.22,51.31,51.39,51.49,51.63,51.72,51.84,51.96,52.04,52.09,52.10,52.10,52.10,52.10,52.10,52.10,52.10,52.10,52.10,52.10,52.10,52.10,52.10,52.10,52.10,52.10,52.10,52.10,52.06,52.02,52.02,52.02,52.01,52.00,52.00,52.00,52.00,52.00,52.00,52.00,52.00,52.00,52.00,52.00,52.00,52.00,52.00,52.00,52.00,52.00,52.00,52.02,52.07,52.08,52.08,52.12,52.17,52.18,52.23
55.02,55.00,54.98,54.91,54.90,54.90,54.90,54.90,54.90,54.90,54.90,54.90,54.90,54.90,54.90,54.90,54.90,54.90,54.90,54.90,54.91,54.94,54.98,55.00,55.00,55.00,55.03,55.04,55.08,55.13,55.14,55.18,55.20,55.18,55.11,55.10,55.10,55.10,55.10,55.10,55.10,55.10,55.10,55.10,55.10,55.10,55.10,55.10,55.10,55.10,55.10,55.09,55.06,55.02,55.00,55.00,55.00,55.00,55.00,55.00,55.00,55.00,55.00,55.00,55.00,55.00,55.00,55.00,55.00,55.00,55.00,54.98,54.94,54.90,54.90,54.90,54.90,54.89,54.86,54.82,54.80,54.80,54.79,54.77,54.73,54.70,54.69,54.67,54.69,54.68,54.63,54.56,54.51,54.45,54.39,54.35,54.28,54.20,54.14,54.08,54.01,53.93,53.85,53.77,53.70,53.62,53.54,53.47,53.38,53.27,53.13,53.02,52.92,52.77,52.61,52.48,52.36,52.24,52.09,52.04,52.00,51.95,51.92,51.85,51.82,51.80,51.72,51.64,51.62,51.59,51.53,51.52,51.52,51.54,51.58,51.61,51.58,51.56,51.55,51.53,51.52,51.46,51.38,51.31,51.26,51.19,51.11,51.03,50.96,50.93,50.89,50.82,50.76,50.76,50.70,50.61,50.55,50.51,50.47,50.41,50.33,50.26,50.21,50.14,50.06,49.99,49.94,49.87,49.79,49.72,49.64,49.61,49.54,49.47,49.39,49.32,49.34,49.41,49.48,49.55,49.64,49.72,49.79,49.86,49.94,50.05,50.12,50.18,50.29,50.34,50.41,50.48,50.57,50.69,50.78,50.87,50.98,51.10,51.19,51.28,51.39,51.51,51.59,51.72,51.85,51.93,52.00,52.07,52.10,52.10,52.10,52.10,52.10,52.10,52.10,52.10,52.10,52.10,52.10,52.10,52.08,52.06,52.06,52.06,52.06,52.03,52.00,52.00,52.00,52.00,52.00,52.00,52.00,52.00,52.00,52.00,52.00,52.00,52.00,52.00,52.00,52.00,52.00,52.00,52.01,52.04,52.04,52.06,52.09,52.13,52.14,52.16,52.20,52.24,52.27,52.32
55.00,55.00,54.97,54.91,54.90,54.90,54.90,54.90,54.90,54.90,54.90,54.90,54.90,54.90,54.90,54.90,54.90,54.90,54.90,54.90,54.91,54.98,55.00,55.00,55.01,55.02,55.08,55.11,55.13,55.19,55.20,55.20,55.20,55.18,55.11,55.09,55.09,55.09,55.09,55.09,55.10,55.10,55.10,55.10,55.10,55.10,55.10,55.10,55.10,55.10,55.10,55.09,55.02,55.00,55.00,55.00,55.00,55.00,55.00,55.00,55.00,55.00,55.00,55.00,55.00,55.00,55.00,55.00,55.00,54.99,54.99,54.95,54.91,54.90,54.90,54.89,54.89,54.88,54.81,54.80,54.79,54.79,54.78,54.72,54.70,54.70,54.68,54.62,54.67,54.65,54.59,54.52,54.49,54.44,54.36,54.29,54.22,54.15,54.10,54.07,54.00,53.92,53.84,53.77,53.69,53.61,53.53,53.46,53.36,53.22,53.07,52.96,52.86,52.70,52.55,52.44,52.33,52.18,52.03,51.94,51.90,51.87,51.80,51.73,51.70,51.67,51.60,51.52,51.50,51.46,51.40,51.39,51.39,51.44,51.49,51.49,51.49,51.48,51.46,51.41,51.39,51.33,51.26,51.20,51.19,51.11,51.04,50.97,50.89,50.82,50.80,50.77,50.70,50.69,50.63,50.55,50.49,50.48,50.42,50.34,50.27,50.20,50.18,50.13,50.05,50.00,49.99,49.93,49.84,49.77,49.69,49.62,49.54,49.47,49.39,49.31,49.31,49.35,49.42,49.50,49.58,49.65,49.72,49.80,49.89,50.01,50.09,50.13,50.27,50.30,50.35,50.43,50.51,50.58,50.66,50.77,50.90,50.98,51.06,51.18,51.31,51.39,51.47,51.60,51.72,51.80,51.89,52.01,52.09,52.09,52.10,52.10,52.10,52.10,52.10,52.10,52.10,52.09,52.09,52.09,52.04,52.00,52.00,52.00,52.00,52.00,52.00,52.00,52.00,52.00,52.00,52.00,52.00,52.00,52.00,52.00,52.00,52.00,52.00,52.00,52.00,52.01,52.01,52.01,52.03,52.09,52.11,52.15,52.20,52.20,52.21,52.26,52.30,52.32,52.38,52.40
55.00,54.97,54.93,54.90,54.90,54.90,54.90,54.90,54.90,54.90,54.90,54.90,54.90,54.90,54.90,54.90,54.90,54.90,54.90,54.90,54.91,54.98,55.00,55.03,55.06,55.07,55.14,55.16,55.18,55.21,55.25,55.22,55.20,55.18,55.11,55.05,55.04,55.04,55.04,55.04,55.07,55.10,55.10,55.10,55.10,55.10,55.10,55.10,55.10,55.10,55.10,55.09,55.02,55.00,55.00,55.00,55.00,55.00,55.00,55.00,55.00,55.00,55.00,55.00,55.00,55.00,55.00,55.00,54.99,54.94,54.94,54.91,54.90,54.90,54.90,54.86,54.84,54.83,54.80,54.80,54.77,54.73,54.73,54.71,54.70,54.68,54.63,54.60,54.62,54.62,54.58,54.50,54.45,54.38,54.30,54.23,54.21,54.14,54.07,54.02,53.94,53.86,53.78,53.71,53.63,53.55,53.47,53.40,53.31,53.16,53.05,52.92,52.79,52.63,52.48,52.38,52.27,52.12,51.97,51.88,51.81,51.75,51.68,51.65,51.60,51.56,51.52,51.40,51.37,51.34,51.28,51.27,51.27,51.31,51.37,51.37,51.37,51.37,51.36,51.33,51.28,51.21,51.16,51.12,51.07,51.00,50.96,50.91,50.83,50.75,50.73,50.70,50.63,50.58,50.55,50.50,50.44,50.43,50.36,50.28,50.20,50.13,50.08,50.05,50.02,50.00,50.00,49.93,49.85,49.77,49.70,49.62,49.54,49.47,49.39,49.31,49.30,49.31,49.36,49.44,49.51,49.59,49.67,49.74,49.81,49.91,49.99,50.07,50.21,50.23,50.31,50.42,50.49,50.53,50.59,50.68,50.78,50.86,50.94,51.05,51.19,51.27,51.34,51.47,51.60,51.69,51.80,51.91,51.99,52.05,52.09,52.10,52.10,52.10,52.10,52.10,52.06,52.04,52.04,52.04,52.01,52.00,52.00,52.00,52.00,52.00,52.00,52.00,52.00,52.00,52.00,52.00,52.00,52.00,52.00,52.00,52.00,52.00,52.00,52.00,52.01,52.05,52.06,52.09,52.14,52.16,52.16,52.22,52.27,52.27,52.32,52.35,52.39,52.44,52.46,52.46
55.00,54.95,54.90,54.90,54.90,54.90,54.90,54.90,54.90,54.90,54.90,54.90,54.90,54.90,54.90,54.90,54.90,54.90,54.90,54.90,54.91,54.98,55.00,55.05,55.11,55.13,55.19,55.21,55.23,55.24,55.28,55.23,55.20,55.18,55.10,55.03,55.00,55.00,55.00,55.00,55.04,55.08,55.08,55.08,55.08,55.08,55.10,55.10,55.10,55.10,55.09,55.06,55.01,55.00,55.00,55.00,55.00,55.00,55.00,55.00,55.00,55.00,55.00,55.00,55.00,55.00,55.00,54.99,54.95,54.91,54.90,54.90,54.89,54.88,54.87,54.83,54.80,54.80,54.80,54.78,54.74,54.70,54.70,54.70,54.69,54.65,54.60,54.60,54.60,54.59,54.55,54.47,54.39,54.34,54.27,54.20,54.17,54.11,54.03,53.95,53.88,53.80,53.72,53.64,53.57,53.50,53.41,53.33,53.25,53.12,53.01,52.88,52.73,52.58,52.44,52.33,52.21,52.05,51.91,51.81,51.72,51.63,51.56,51.54,51.50,51.45,51.42,51.31,51.26,51.22,51.17,51.15,51.16,51.20,51.25,51.25,51.25,51.26,51.27,51.24,51.18,51.11,51.06,51.03,50.97,50.91,50.86,50.83,50.77,50.70,50.66,50.62,50.56,50.49,50.45,50.41,50.37,50.34,50.29,50.22,50.13,50.04,49.99,49.98,49.98,49.98,49.97,49.91,49.84,49.77,49.70,49.62,49.54,49.47,49.39,49.31,49.28,49.27,49.30,49.37,49.44,49.53,49.60,49.67,49.75,49.84,49.91,50.00,50.13,50.16,50.27,50.40,50.47,50.49,50.56,50.63,50.71,50.79,50.87,50.98,51.09,51.17,51.25,51.36,51.47,51.56,51.71,51.80,51.88,51.96,52.06,52.08,52.08,52.08,52.08,52.08,52.03,52.00,52.00,52.00,52.00,52.00,52.00,52.00,52.00,52.00,52.00,52.00,52.00,52.00,52.00,52.00,52.00,52.00,52.00,52.01,52.02,52.02,52.02,52.04,52.06,52.12,52.14,52.18,52.23,52.23,52.25,52.29,52.33,52.36,52.41,52.42,52.47,52.52,52.53,52.55
55.00,54.95,54.90,54.90,54.90,54.90,54.90,54.90,54.90,54.90,54.90,54.90,54.90,54.90,54.90,54.90,54.90,54.90,54.90,54.90,54.91,54.98,55.00,55.05,55.12,55.18,55.20,55.25,55.28,55.29,55.29,55.23,55.20,55.18,55.10,55.03,55.00,55.00,55.00,55.00,55.01,55.02,55.02,55.02,55.02,55.05,55.10,55.10,55.10,55.10,55.07,55.02,55.00,55.00,55.00,55.00,55.00,55.00,55.00,55.00,55.00,55.00,55.00,55.00,55.00,55.00,55.00,54.96,54.91,54.90,54.90,54.90,54.87,54.82,54.81,54.80,54.80,54.79,54.79,54.73,54.71,54.70,54.70,54.70,54.65,54.61,54.60,54.60,54.60,54.56,54.48,54.41,54.33,54.31,54.27,54.19,54.12,54.05,53.97,53.89,53.81,53.73,53.66,53.58,53.50,53.43,53.36,53.28,53.20,53.11,52.97,52.82,52.67,52.52,52.43,52.30,52.15,51.99,51.84,51.75,51.64,51.51,51.44,51.42,51.37,51.32,51.31,51.23,51.16,51.12,51.09,51.04,51.08,51.11,51.12,51.12,51.12,51.16,51.18,51.13,51.11,51.05,50.97,50.92,50.90,50.84,50.76,50.72,50.70,50.63,50.56,50.52,50.49,50.42,50.35,50.31,50.29,50.23,50.21,50.16,50.05,49.93,49.91,49.91,49.91,49.91,49.91,49.84,49.81,49.77,49.70,49.62,49.54,49.47,49.39,49.31,49.24,49.22,49.23,49.30,49.39,49.46,49.53,49.61,49.69,49.77,49.84,49.93,50.02,50.09,50.20,50.34,50.41,50.48,50.55,50.63,50.70,50.78,50.86,50.95,51.03,51.11,51.19,51.27,51.35,51.44,51.59,51.68,51.76,51.85,51.98,52.01,52.02,52.02,52.02,52.02,52.01,52.00,52.00,52.00,52.00,52.00,52.00,52.00,52.00,52.00,52.00,52.00,52.00,52.00,52.00,52.00,52.00,52.00,52.00,52.02,52.08,52.09,52.09,52.12,52.18,52.19,52.25,52.28,52.29,52.30,52.35,52.39,52.41,52.48,52.49,52.49,52.53,52.59,52.59,52.65
54.96,54.93,54.90,54.90,54.90,54.90,54.90,54.90,54.90,54.90,54.90,54.90,54.90,54.90,54.90,54.90,54.90,54.90,54.90,54.90,54.91,54.99,55.04,55.07,55.12,55.20,55.24,55.28,55.32,55.34,55.30,55.23,55.18,55.14,55.09,55.03,55.00,55.00,55.00,55.00,55.00,55.00,55.00,55.00,55.00,55.02,55.05,55.05,55.05,55.05,55.03,55.00,55.00,55.00,55.00,55.00,55.00,55.00,55.00,55.00,55.00,55.00,55.00,54.98,54.95,54.95,54.95,54.93,54.90,54.90,54.90,54.87,54.83,54.80,54.80,54.80,54.78,54.74,54.74,54.71,54.70,54.69,54.65,54.64,54.62,54.60,54.59,54.55,54.55,54.50,54.44,54.39,54.32,54.27,54.22,54.13,54.06,53.98,53.91,53.83,53.75,53.67,53.59,53.52,53.45,53.36,53.29,53.22,53.13,53.05,52.92,52.76,52.62,52.50,52.38,52.24,52.09,51.94,51.82,51.70,51.56,51.44,51.36,51.31,51.27,51.23,51.19,51.11,51.04,51.00,50.99,50.95,50.98,51.00,51.00,51.00,51.00,51.05,51.08,51.04,51.00,50.93,50.88,50.84,50.79,50.72,50.67,50.63,50.59,50.51,50.47,50.43,50.38,50.31,50.27,50.22,50.18,50.15,50.14,50.09,50.01,49.91,49.90,49.90,49.90,49.89,49.85,49.81,49.77,49.72,49.65,49.61,49.54,49.47,49.39,49.31,49.23,49.20,49.21,49.25,49.32,49.40,49.47,49.55,49.63,49.71,49.80,49.91,49.99,50.07,50.17,50.27,50.34,50.42,50.50,50.58,50.66,50.73,50.81,50.89,50.97,51.05,51.12,51.19,51.28,51.36,51.47,51.55,51.65,51.77,51.88,51.93,51.97,52.00,52.00,52.00,52.00,52.00,52.00,52.00,52.00,52.00,52.00,52.00,52.00,52.00,52.00,52.00,52.00,52.00,52.00,52.01,52.05,52.05,52.05,52.08,52.14,52.16,52.18,52.22,52.25,52.26,52.31,52.36,52.36,52.40,52.44,52.45,52.48,52.55,52.55,52.59,52.63,52.66,52.70,52.74
54.93,54.90,54.90,54.90,54.90,54.90,54.90,54.90,54.90,54.90,54.90,54.90,54.90,54.90,54.90,54.90,54.90,54.90,54.90,54.90,54.91,54.99,55.06,55.09,55.12,55.20,55.28,55.31,55.34,55.38,55.31,55.23,55.16,55.11,55.09,55.03,55.00,55.00,54.98,54.98,54.98,54.99,55.00,55.00,55.00,55.00,55.00,55.00,55.00,55.00,55.00,55.00,55.00,55.00,55.00,55.00,55.00,55.00,55.00,55.00,55.00,55.00,55.00,54.96,54.91,54.90,54.90,54.90,54.90,54.90,54.89,54.84,54.80,54.80,54.79,54.79,54.75,54.70,54.70,54.70,54.69,54.66,54.61,54.60,54.60,54.59,54.57,54.51,54.50,54.45,54.40,54.38,54.30,54.23,54.16,54.07,54.00,53.92,53.85,53.78,53.70,53.63,53.55,53.47,53.40,53.32,53.24,53.16,53.09,52.99,52.85,52.70,52.58,52.48,52.33,52.17,52.03,51.89,51.80,51.66,51.50,51.36,51.29,51.20,51.17,51.14,51.06,50.99,50.91,50.87,50.87,50.87,50.87,50.87,50.87,50.87,50.88,50.93,50.97,50.96,50.89,50.82,50.78,50.75,50.68,50.61,50.58,50.55,50.48,50.41,50.38,50.34,50.27,50.20,50.19,50.14,50.09,50.08,50.07,50.02,49.96,49.90,49.89,49.88,49.88,49.87,49.81,49.79,49.74,49.67,49.61,49.59,49.53,49.46,49.39,49.31,49.23,49.20,49.20,49.20,49.25,49.34,49.42,49.51,49.58,49.66,49.77,49.90,49.97,50.05,50.13,50.21,50.28,50.36,50.44,50.52,50.59,50.67,50.75,50.83,50.91,50.98,51.05,51.14,51.22,51.29,51.36,51.44,51.55,51.68,51.76,51.84,51.92,51.99,52.00,52.00,52.00,52.00,52.00,52.00,52.00,52.00,52.00,52.00,52.00,52.00,52.00,52.00,52.01,52.02,52.02,52.05,52.10,52.12,52.12,52.15,52.21,52.23,52.28,52.31,52.32,52.33,52.38,52.42,52.45,52.51,52.52,52.52,52.56,52.61,52.63,52.68,52.71,52.73,52.80,52.81
54.93,54.90,54.90,54.90,54.90,54.90,54.90,54.90,54.90,54.90,54.90,54.90,54.90,54.90,54.90,54.90,54.90,54.90,54.90,54.90,54.91,54.98,55.02,55.06,55.12,55.20,55.28,55.34,55.39,55.38,55.31,55.23,55.19,55.16,55.10,55.03,55.00,54.98,54.93,54.92,54.92,54.95,55.00,55.00,55.00,55.00,55.00,55.00,55.00,55.00,55.00,55.00,55.00,55.00,55.00,55.00,55.00,55.00,55.00,55.00,55.00,55.00,55.00,54.96,54.91,54.90,54.90,54.90,54.90,54.89,54.84,54.81,54.80,54.79,54.74,54.73,54.71,54.70,54.70,54.70,54.66,54.62,54.60,54.60,54.60,54.57,54.52,54.50,54.50,54.45,54.38,54.32,54.25,54.16,54.09,54.02,53.94,53.86,53.81,53.78,53.70,53.63,53.55,53.47,53.40,53.32,53.24,53.16,53.08,52.94,52.78,52.67,52.56,52.42,52.27,52.12,51.98,51.88,51.75,51.59,51.44,51.30,51.22,51.09,51.04,51.02,50.94,50.86,50.78,50.74,50.74,50.74,50.74,50.74,50.74,50.75,50.80,50.83,50.84,50.84,50.82,50.76,50.69,50.63,50.55,50.53,50.48,50.44,50.41,50.34,50.27,50.24,50.21,50.14,50.13,50.07,50.02,50.02,49.96,49.93,49.91,49.89,49.84,49.83,49.83,49.82,49.80,49.74,49.71,49.67,49.60,49.54,49.47,49.41,49.38,49.31,49.23,49.20,49.18,49.14,49.19,49.28,49.37,49.50,49.58,49.66,49.75,49.84,49.92,49.99,50.06,50.15,50.22,50.30,50.38,50.46,50.53,50.61,50.69,50.77,50.84,50.92,51.00,51.08,51.15,51.22,51.30,51.39,51.46,51.56,51.64,51.71,51.83,51.94,51.99,52.00,52.00,52.00,52.00,52.00,52.00,52.00,52.00,52.00,52.00,52.00,52.00,52.01,52.06,52.08,52.11,52.16,52.17,52.17,52.21,52.26,52.28,52.34,52.37,52.38,52.39,52.45,52.47,52.51,52.56,52.57,52.58,52.62,52.66,52.69,52.74,52.77,52.77,52.80,52.86,52.88
54.92,54.90,54.90,54.90,54.90,54.90,54.90,54.90,54.90,54.90,54.90,54.90,54.90,54.90,54.90,54.90,54.90,54.90,54.90,54.90,54.93,55.06,55.08,55.13,55.20,55.24,55.29,55.36,55.41,55.42,55.35,55.28,55.22,55.18,55.10,55.03,54.98,54.94,54.91,54.90,54.90,54.94,55.00,55.00,55.00,55.00,55.00,55.00,55.00,55.00,55.00,55.00,55.00,55.00,55.00,55.00,55.00,55.00,55.00,55.00,55.00,55.00,55.00,54.96,54.91,54.90,54.90,54.90,54.89,54.86,54.81,54.80,54.79,54.75,54.71,54.70,54.70,54.69,54.66,54.66,54.63,54.60,54.59,54.56,54.55,54.54,54.50,54.50,54.47,54.41,54.34,54.30,54.22,54.15,54.07,53.99,53.91,53.84,53.78,53.74,53.66,53.58,53.51,53.44,53.36,53.28,53.20,53.13,53.03,52.88,52.73,52.61,52.52,52.36,52.20,52.07,51.96,51.84,51.69,51.53,51.39,51.27,51.16,51.02,50.94,50.89,50.82,50.77,50.68,50.62,50.62,50.62,50.62,50.62,50.63,50.66,50.70,50.74,50.76,50.75,50.72,50.65,50.58,50.51,50.46,50.43,50.37,50.32,50.31,50.24,50.18,50.14,50.11,50.07,50.03,49.99,49.95,49.95,49.91,49.90,49.89,49.85,49.81,49.80,49.79,49.76,49.76,49.72,49.68,49.63,49.56,49.51,49.44,49.39,49.35,49.30,49.23,49.20,49.18,49.12,49.17,49.25,49.34,49.46,49.55,49.62,49.69,49.78,49.86,49.96,50.05,50.12,50.20,50.28,50.36,50.43,50.51,50.59,50.66,50.74,50.81,50.86,50.94,51.01,51.09,51.17,51.25,51.32,51.40,51.47,51.55,51.63,51.73,51.84,51.92,51.98,52.00,52.00,52.00,52.00,52.00,52.00,52.00,52.00,52.03,52.05,52.05,52.09,52.13,52.15,52.18,52.24,52.24,52.27,52.31,52.34,52.36,52.42,52.45,52.46,52.49,52.53,52.55,52.59,52.64,52.65,52.67,52.71,52.75,52.79,52.83,52.84,52.86,52.89,52.93,52.97
54.90,54.90,54.90,54.90,54.90,54.90,54.90,54.90,54.90,54.90,54.90,54.90,54.90,54.90,54.90,54.90,54.90,54.90,54.90,54.90,54.95,55.13,55.18,55.23,55.28,55.30,55.31,55.36,55.44,55.48,55.41,55.33,55.26,55.18,55.10,55.04,54.96,54.91,54.90,54.90,54.90,54.94,54.99,55.00,55.00,55.00,55.00,55.00,55.00,55.00,55.00,55.00,55.00,55.00,55.00,55.00,55.00,55.00,55.00,55.00,55.00,55.00,55.00,54.97,54.91,54.90,54.90,54.90,54.88,54.81,54.80,54.80,54.77,54.71,54.70,54.70,54.70,54.68,54.62,54.60,54.60,54.60,54.58,54.52,54.50,54.50,54.49,54.48,54.43,54.36,54.30,54.28,54.21,54.14,54.06,53.98,53.91,53.83,53.75,53.67,53.60,53.53,53.45,53.37,53.30,53.22,53.13,53.06,52.97,52.81,52.67,52.56,52.45,52.30,52.15,52.04,51.93,51.78,51.63,51.48,51.36,51.26,51.11,50.95,50.85,50.78,50.71,50.69,50.58,50.50,50.49,50.49,50.49,50.49,50.52,50.58,50.60,50.65,50.69,50.67,50.61,50.54,50.46,50.40,50.38,50.32,50.25,50.20,50.19,50.12,50.09,50.06,50.01,49.99,49.94,49.91,49.91,49.91,49.89,49.89,49.87,49.81,49.79,49.79,49.75,49.70,49.70,49.70,49.65,49.58,49.52,49.50,49.44,49.37,49.32,49.30,49.23,49.20,49.18,49.12,49.17,49.24,49.32,49.41,49.48,49.56,49.65,49.72,49.80,49.93,50.04,50.11,50.19,50.27,50.35,50.42,50.51,50.59,50.66,50.74,50.80,50.81,50.88,50.95,51.03,51.11,51.19,51.27,51.34,51.42,51.49,51.57,51.65,51.73,51.81,51.95,51.99,51.99,52.00,52.00,52.01,52.01,52.01,52.02,52.08,52.11,52.13,52.19,52.20,52.21,52.24,52.30,52.32,52.37,52.40,52.41,52.43,52.49,52.51,52.54,52.59,52.60,52.61,52.65,52.71,52.72,52.78,52.80,52.83,52.89,52.90,52.91,52.94,53.00,53.01,53.07
54.90,54.90,54.90,54.90,54.90,54.90,54.90,54.90,54.90,54.90,54.90,54.90,54.90,54.90,54.90,54.90,54.90,54.90,54.90,54.90,54.93,55.04,55.11,55.18,55.25,55.30,55.35,55.43,55.48,55.48,55.41,55.34,55.26,55.18,55.11,55.07,54.98,54.90,54.90,54.90,54.90,54.91,54.95,54.99,55.00,55.00,55.00,55.00,55.00,55.00,55.00,55.00,55.00,55.00,55.00,55.00,55.00,55.00,55.00,55.00,55.00,55.00,55.00,54.99,54.95,54.91,54.90,54.90,54.88,54.81,54.80,54.80,54.77,54.70,54.70,54.70,54.67,54.63,54.60,54.60,54.60,54.58,54.53,54.51,54.50,54.48,54.44,54.43,54.41,54.36,54.29,54.23,54.16,54.08,54.00,53.92,53.84,53.77,53.70,53.61,53.53,53.46,53.38,53.30,53.23,53.16,53.07,53.00,52.90,52.76,52.64,52.52,52.39,52.23,52.08,51.98,51.87,51.72,51.56,51.45,51.33,51.20,51.05,50.89,50.78,50.70,50.63,50.58,50.49,50.41,50.37,50.36,50.36,50.40,50.44,50.47,50.52,50.59,50.61,50.55,50.48,50.45,50.39,50.32,50.27,50.20,50.15,50.13,50.13,50.05,50.00,49.96,49.94,49.93,49.91,49.90,49.90,49.89,49.85,49.84,49.83,49.79,49.75,49.73,49.72,49.70,49.70,49.65,49.62,49.58,49.51,49.50,49.44,49.39,49.36,49.31,49.23,49.20,49.18,49.11,49.13,49.19,49.27,49.34,49.42,49.53,49.64,49.71,49.79,49.89,49.98,50.05,50.14,50.22,50.29,50.39,50.51,50.59,50.66,50.74,50.80,50.81,50.87,50.95,51.03,51.11,51.18,51.26,51.34,51.41,51.49,51.52,51.58,51.66,51.74,51.84,51.91,51.96,52.00,52.00,52.04,52.06,52.08,52.13,52.16,52.16,52.20,52.26,52.27,52.31,52.34,52.38,52.43,52.46,52.46,52.48,52.53,52.56,52.60,52.65,52.66,52.67,52.71,52.75,52.78,52.83,52.86,52.87,52.89,52.96,52.96,53.01,53.04,53.06,53.07,53.14
54.90,54.90,54.90,54.90,54.90,54.90,54.90,54.90,54.90,54.90,54.90,54.90,54.90,54.90,54.90,54.90,54.90,54.90,54.90,54.90,54.91,54.99,55.07,55.15,55.22,55.30,55.38,55.45,55.51,55.51,55.45,55.36,55.28,55.21,55.14,55.11,55.00,54.90,54.90,54.90,54.90,54.90,54.91,54.98,55.00,55.00,55.00,55.00,55.00,55.00,55.00,55.00,55.00,55.00,55.00,55.00,55.00,55.00,55.00,55.00,55.00,55.00,55.00,55.00,54.98,54.91,54.90,54.89,54.85,54.81,54.80,54.79,54.75,54.70,54.70,54.68,54.64,54.60,54.60,54.58,54.57,54.55,54.50,54.50,54.48,54.45,54.40,54.40,54.38,54.32,54.25,54.17,54.09,54.02,53.94,53.86,53.78,53.70,53.63,53.55,53.47,53.39,53.32,53.25,53.16,53.09,53.02,52.94,52.85,52.72,52.61,52.48,52.33,52.18,52.04,51.93,51.81,51.66,51.50,51.41,51.29,51.13,50.98,50.85,50.74,50.64,50.54,50.46,50.38,50.31,50.25,50.24,50.26,50.30,50.35,50.38,50.44,50.51,50.52,50.46,50.39,50.35,50.30,50.23,50.15,50.09,50.07,50.06,50.04,49.99,49.93,49.90,49.90,49.90,49.90,49.89,49.87,49.86,49.81,49.80,49.79,49.76,49.71,49.70,49.69,49.67,49.67,49.62,49.60,49.58,49.51,49.50,49.44,49.40,49.38,49.31,49.23,49.20,49.18,49.11,49.10,49.14,49.20,49.28,49.38,49.50,49.61,49.69,49.79,49.87,49.95,50.03,50.13,50.20,50.28,50.39,50.51,50.59,50.66,50.74,50.81,50.83,50.88,50.95,51.03,51.11,51.18,51.26,51.33,51.39,51.46,51.49,51.55,51.62,51.70,51.78,51.86,51.93,52.00,52.03,52.09,52.14,52.17,52.22,52.23,52.24,52.28,52.33,52.35,52.40,52.43,52.45,52.52,52.53,52.54,52.57,52.62,52.63,52.69,52.73,52.73,52.75,52.80,52.83,52.85,52.92,52.93,52.95,52.98,53.03,53.05,53.10,53.13,53.13,53.16,53.21
54.90,54.90,54.90,54.90,54.90,54.90,54.90,54.90,54.90,54.90,54.90,54.90,54.90,54.90,54.90,54.90,54.90,54.90,54.90,54.90,54.91,54.99,55.07,55.15,55.22,55.30,55.38,55.45,55.53,55.57,55.50,55.42,55.35,55.27,55.19,55.13,55.00,54.90,54.90,54.89,54.90,54.90,54.91,54.98,55.00,55.00,55.00,55.00,55.00,55.00,55.00,55.00,55.00,55.00,55.00,55.00,55.00,55.00,55.00,55.00,55.00,55.00,55.00,55.00,54.98,54.91,54.90,54.86,54.81,54.80,54.80,54.75,54.71,54.70,54.70,54.65,54.61,54.60,54.59,54.53,54.51,54.51,54.50,54.50,54.45,54.41,54.40,54.39,54.34,54.27,54.19,54.11,54.03,53.95,53.88,53.80,53.72,53.64,53.56,53.49,53.42,53.34,53.26,53.19,53.11,53.03,52.95,52.88,52.80,52.70,52.57,52.42,52.27,52.12,52.02,51.90,51.74,51.59,51.45,51.34,51.23,51.08,50.92,50.83,50.70,50.56,50.42,50.34,50.26,50.18,50.12,50.12,50.17,50.21,50.24,50.30,50.38,50.41,50.41,50.39,50.32,50.25,50.18,50.10,50.03,50.01,50.01,49.99,49.93,49.91,49.91,49.90,49.90,49.90,49.90,49.86,49.81,49.81,49.80,49.80,49.77,49.72,49.70,49.70,49.67,49.62,49.61,49.61,49.60,49.58,49.51,49.50,49.45,49.40,49.38,49.31,49.24,49.20,49.18,49.11,49.10,49.11,49.14,49.23,49.36,49.46,49.55,49.64,49.78,49.87,49.95,50.05,50.18,50.27,50.34,50.42,50.51,50.59,50.66,50.74,50.82,50.88,50.90,50.95,51.03,51.11,51.18,51.26,51.30,51.33,51.40,51.47,51.55,51.62,51.70,51.77,51.85,51.93,52.00,52.07,52.15,52.22,52.27,52.29,52.29,52.34,52.38,52.41,52.46,52.49,52.49,52.52,52.58,52.60,52.64,52.68,52.69,52.70,52.75,52.80,52.81,52.87,52.89,52.90,52.91,52.98,53.00,53.04,53.09,53.10,53.16,53.19,53.20,53.21,53.27,53.29
54.90,54.90,54.90,54.90,54.90,54.90,54.90,54.90,54.90,54.90,54.90,54.90,54.90,54.90,54.90,54.90,54.90,54.90,54.90,54.90,54.91,54.99,55.07,55.15,55.22,55.30,55.38,55.45,55.53,55.58,55.51,55.44,55.36,55.28,55.20,55.13,55.03,54.94,54.90,54.86,54.88,54.90,54.91,54.98,55.00,55.00,55.00,55.00,55.00,55.00,55.00,55.00,55.00,55.00,55.00,55.00,55.00,55.00,55.00,55.00,55.00,55.00,55.00,54.98,54.94,54.91,54.87,54.82,54.80,54.79,54.76,54.72,54.70,54.69,54.65,54.62,54.60,54.59,54.55,54.51,54.50,54.50,54.49,54.46,54.42,54.40,54.39,54.35,54.28,54.20,54.13,54.05,53.97,53.89,53.81,53.73,53.66,53.58,53.50,53.44,53.40,53.33,53.25,53.17,53.10,53.02,52.94,52.87,52.78,52.66,52.51,52.36,52.21,52.10,51.98,51.84,51.69,51.53,51.42,51.30,51.17,51.01,50.86,50.78,50.65,50.49,50.35,50.27,50.19,50.09,50.00,50.04,50.07,50.12,50.16,50.20,50.27,50.29,50.29,50.27,50.20,50.13,50.07,50.03,49.96,49.95,49.95,49.94,49.90,49.90,49.90,49.90,49.90,49.90,49.87,49.83,49.80,49.80,49.80,49.77,49.73,49.70,49.70,49.70,49.68,49.66,49.66,49.66,49.63,49.59,49.55,49.51,49.48,49.44,49.39,49.36,49.29,49.23,49.18,49.11,49.10,49.10,49.13,49.21,49.32,49.41,49.51,49.62,49.73,49.85,49.97,50.09,50.20,50.28,50.36,50.43,50.51,50.59,50.66,50.74,50.82,50.89,50.94,50.98,51.03,51.11,51.18,51.26,51.32,51.36,51.40,51.47,51.55,51.62,51.70,51.74,51.80,51.88,51.96,52.03,52.11,52.19,52.26,52.30,52.34,52.41,52.47,52.51,52.55,52.55,52.58,52.62,52.65,52.69,52.73,52.76,52.76,52.80,52.83,52.87,52.91,52.95,52.95,52.98,53.02,53.05,53.10,53.13,53.16,53.16,53.23,53.26,53.27,53.32,53.35,53.36
54.90,54.90,54.90,54.90,54.90,54.90,54.90,54.90,54.90,54.90,54.90,54.90,54.90,54.90,54.90,54.90,54.90,54.90,54.90,54.90,54.91,54.99,55.07,55.15,55.22,55.30,55.39,55.47,55.55,55.59,55.53,55.45,55.38,55.30,55.26,55.22,55.17,55.08,54.91,54.82,54.85,54.89,54.91,54.98,55.00,55.00,55.00,55.00,55.00,55.00,55.00,55.00,55.00,55.00,55.00,55.00,55.00,55.00,55.00,55.00,55.00,55.00,54.99,54.95,54.90,54.89,54.83,54.80,54.80,54.77,54.72,54.70,54.70,54.69,54.62,54.60,54.60,54.58,54.51,54.50,54.50,54.49,54.47,54.42,54.40,54.39,54.37,54.31,54.23,54.16,54.08,54.00,53.92,53.85,53.77,53.69,53.62,53.54,53.46,53.40,53.38,53.31,53.23,53.16,53.07,53.00,52.92,52.84,52.75,52.61,52.45,52.30,52.18,52.08,51.93,51.77,51.63,51.49,51.40,51.25,51.11,50.95,50.82,50.72,50.59,50.43,50.29,50.20,50.12,50.01,49.92,49.97,49.98,50.02,50.07,50.07,50.13,50.14,50.14,50.14,50.08,50.01,49.98,49.97,49.91,49.90,49.90,49.90,49.90,49.90,49.90,49.90,49.90,49.88,49.83,49.80,49.80,49.80,49.80,49.76,49.71,49.71,49.71,49.71,49.70,49.70,49.70,49.70,49.66,49.61,49.60,49.53,49.51,49.47,49.42,49.40,49.34,49.27,49.20,49.13,49.10,49.09,49.11,49.19,49.27,49.35,49.47,49.60,49.69,49.83,49.98,50.12,50.20,50.28,50.36,50.43,50.51,50.60,50.67,50.74,50.82,50.90,50.97,51.00,51.03,51.11,51.18,51.26,51.34,51.40,51.41,51.47,51.55,51.62,51.69,51.71,51.77,51.83,51.91,51.99,52.06,52.14,52.22,52.28,52.36,52.44,52.51,52.58,52.60,52.61,52.66,52.71,52.72,52.78,52.81,52.82,52.84,52.90,52.91,52.95,53.01,53.02,53.03,53.07,53.12,53.14,53.20,53.21,53.22,53.24,53.30,53.33,53.37,53.41,53.42,53.43
54.90,54.90,54.90,54.90,54.90,54.90,54.90,54.90,54.90,54.90,54.90,54.90,54.90,54.90,54.90,54.90,54.90,54.90,54.90,54.90,54.91,54.99,55.07,55.15,55.22,55.31,55.44,55.53,55.62,55.67,55.59,55.52,55.44,55.40,55.45,55.55,55.62,55.44,54.94,54.82,54.81,54.85,54.91,54.98,55.00,55.00,55.00,55.00,55.00,55.00,55.00,55.00,55.00,55.00,55.00,55.00,55.00,55.00,55.00,55.00,55.00,55.00,54.95,54.91,54.90,54.89,54.83,54.80,54.78,54.72,54.70,54.70,54.70,54.69,54.62,54.60,54.60,54.58,54.51,54.50,54.50,54.48,54.42,54.40,54.40,54.37,54.32,54.30,54.23,54.16,54.08,54.00,53.92,53.85,53.77,53.69,53.62,53.54,53.46,53.39,53.32,53.25,53.17,53.09,53.02,52.94,52.86,52.78,52.69,52.54,52.38,52.27,52.16,52.02,51.87,51.72,51.58,51.48,51.34,51.19,51.04,50.90,50.80,50.67,50.52,50.37,50.23,50.14,50.02,49.93,49.91,49.91,49.92,49.93,49.94,49.94,49.95,49.96,49.96,49.96,49.94,49.93,49.92,49.91,49.90,49.90,49.90,49.90,49.90,49.90,49.90,49.90,49.89,49.83,49.81,49.80,49.80,49.80,49.80,49.79,49.78,49.78,49.78,49.73,49.70,49.70,49.70,49.70,49.69,49.66,49.60,49.59,49.54,49.49,49.47,49.41,49.34,49.29,49.26,49.19,49.12,49.06,49.05,49.13,49.21,49.33,49.45,49.55,49.69,49.78,49.95,50.12,50.20,50.28,50.36,50.43,50.52,50.65,50.69,50.74,50.82,50.90,50.97,51.00,51.03,51.11,51.18,51.26,51.34,51.40,51.41,51.47,51.55,51.62,51.70,51.76,51.79,51.83,51.91,51.99,52.06,52.14,52.20,52.23,52.30,52.37,52.44,52.52,52.59,52.65,52.72,52.78,52.79,52.85,52.88,52.90,52.95,52.98,52.98,53.02,53.07,53.08,53.13,53.17,53.20,53.25,53.27,53.28,53.30,53.36,53.38,53.43,53.47,53.48,53.48,53.53
54.90,54.90,54.90,54.90,54.90,54.90,54.90,54.90,54.90,54.90,54.90,54.90,54.90,54.90,54.90,54.90,54.90,54.90,54.90,54.90,54.93,55.07,55.16,55.25,55.36,55.43,55.52,55.57,55.63,55.68,55.61,55.54,55.46,55.40,55.42,55.46,55.47,55.30,54.93,54.82,54.80,54.84,54.90,54.95,54.99,55.00,55.00,55.00,55.00,55.00,55.00,55.00,55.00,55.00,55.00,55.00,55.00,55.00,55.00,54.99,54.96,54.95,54.92,54.89,54.85,54.85,54.82,54.80,54.78,54.71,54.70,54.70,54.69,54.65,54.61,54.60,54.58,54.55,54.51,54.50,54.48,54.44,54.41,54.40,54.38,54.33,54.29,54.26,54.19,54.11,54.03,53.95,53.88,53.80,53.72,53.64,53.57,53.50,53.41,53.34,53.27,53.19,53.11,53.03,52.95,52.88,52.80,52.72,52.63,52.48,52.33,52.22,52.12,51.96,51.80,51.67,51.56,51.44,51.28,51.13,50.99,50.87,50.76,50.62,50.46,50.32,50.20,50.12,49.98,49.90,49.90,49.90,49.90,49.90,49.90,49.90,49.90,49.90,49.90,49.90,49.90,49.90,49.90,49.90,49.90,49.90,49.90,49.90,49.90,49.90,49.90,49.89,49.85,49.81,49.80,49.80,49.80,49.80,49.80,49.80,49.80,49.80,49.80,49.77,49.74,49.74,49.74,49.74,49.72,49.67,49.61,49.60,49.54,49.50,49.48,49.41,49.37,49.32,49.28,49.20,49.13,49.05,49.02,49.07,49.14,49.25,49.37,49.49,49.63,49.72,49.88,50.06,50.20,50.31,50.40,50.47,50.56,50.68,50.70,50.74,50.82,50.90,50.97,51.02,51.06,51.11,51.18,51.26,51.34,51.41,51.44,51.48,51.55,51.62,51.70,51.78,51.82,51.86,51.91,51.99,52.06,52.14,52.21,52.25,52.28,52.35,52.43,52.51,52.58,52.63,52.69,52.76,52.80,52.87,52.92,52.97,53.03,53.05,53.07,53.10,53.15,53.18,53.23,53.24,53.27,53.33,53.34,53.37,53.40,53.44,53.45,53.50,53.55,53.55,53.58,53.63
54.90,54.90,54.90,54.90,54.90,54.90,54.90,54.90,54.90,54.90,54.90,54.90,54.90,54.90,54.90,54.90,54.90,54.90,54.90,54.90,54.95,55.14,55.24,55.36,55.49,55.55,55.58,55.60,55.64,55.69,55.62,55.55,55.47,55.38,55.31,55.25,55.13,55.01,54.90,54.82,54.80,54.83,54.89,54.91,54.97,55.00,55.00,55.00,55.00,55.00,55.00,55.00,55.00,55.00,55.00,55.00,55.00,54.99,54.99,54.97,54.91,54.91,54.89,54.86,54.81,54.81,54.79,54.79,54.77,54.71,54.69,54.69,54.66,54.61,54.59,54.59,54.55,54.50,54.49,54.49,54.45,54.41,54.40,54.39,54.34,54.30,54.29,54.21,54.13,54.05,53.97,53.89,53.81,53.74,53.66,53.58,53.50,53.43,53.36,53.28,53.20,53.13,53.05,52.97,52.89,52.81,52.73,52.66,52.57,52.42,52.27,52.16,52.05,51.90,51.74,51.64,51.53,51.38,51.23,51.07,50.96,50.85,50.70,50.55,50.40,50.27,50.20,50.12,49.99,49.91,49.90,49.90,49.90,49.90,49.90,49.90,49.90,49.90,49.90,49.90,49.90,49.90,49.90,49.90,49.90,49.90,49.90,49.90,49.90,49.90,49.90,49.87,49.81,49.80,49.80,49.80,49.80,49.80,49.80,49.81,49.81,49.81,49.81,49.81,49.80,49.80,49.80,49.80,49.75,49.69,49.62,49.60,49.55,49.51,49.49,49.42,49.40,49.35,49.28,49.21,49.14,49.06,49.01,49.02,49.08,49.16,49.27,49.42,49.57,49.67,49.79,49.97,50.17,50.33,50.44,50.52,50.60,50.69,50.71,50.75,50.82,50.90,50.97,51.05,51.10,51.12,51.18,51.26,51.34,51.41,51.48,51.51,51.55,51.62,51.70,51.78,51.85,51.90,51.92,51.99,52.06,52.14,52.22,52.28,52.30,52.35,52.43,52.51,52.58,52.61,52.65,52.72,52.79,52.87,52.95,53.02,53.09,53.09,53.15,53.20,53.22,53.28,53.30,53.31,53.33,53.39,53.41,53.46,53.50,53.51,53.52,53.57,53.61,53.63,53.69,53.70
54.90,54.90,54.90,54.90,54.90,54.90,54.90,54.90,54.90,54.90,54.90,54.90,54.90,54.90,54.90,54.90,54.90,54.90,54.90,54.90,54.94,55.10,55.15,55.26,55.39,55.46,55.52,55.61,55.70,55.75,55.69,55.60,55.50,55.38,55.30,55.23,55.13,55.02,54.90,54.82,54.80,54.81,54.84,54.90,54.97,55.00,55.00,55.00,55.00,55.00,55.00,55.00,55.00,55.00,55.00,55.00,55.00,54.95,54.94,54.92,54.90,54.90,54.86,54.82,54.80,54.79,54.75,54.73,54.73,54.70,54.65,54.63,54.62,54.59,54.54,54.54,54.52,54.49,54.44,54.44,54.41,54.40,54.39,54.35,54.31,54.30,54.29,54.21,54.09,53.98,53.91,53.83,53.75,53.67,53.60,53.53,53.45,53.36,53.29,53.22,53.13,53.06,52.98,52.91,52.82,52.75,52.67,52.59,52.50,52.35,52.24,52.12,51.99,51.84,51.68,51.57,51.47,51.31,51.16,51.05,50.93,50.80,50.65,50.49,50.37,50.27,50.20,50.12,50.02,49.94,49.90,49.90,49.90,49.90,49.90,49.90,49.90,49.90,49.90,49.90,49.90,49.90,49.90,49.90,49.90,49.90,49.90,49.90,49.90,49.90,49.90,49.87,49.81,49.80,49.80,49.80,49.80,49.80,49.80,49.84,49.87,49.87,49.87,49.87,49.87,49.87,49.86,49.82,49.79,49.75,49.67,49.61,49.58,49.54,49.50,49.47,49.43,49.36,49.29,49.27,49.20,49.11,49.05,49.01,49.03,49.09,49.20,49.36,49.51,49.60,49.73,49.89,50.06,50.22,50.39,50.53,50.61,50.69,50.74,50.78,50.82,50.90,50.97,51.05,51.12,51.17,51.19,51.26,51.34,51.41,51.49,51.55,51.58,51.62,51.70,51.78,51.86,51.92,51.97,52.00,52.06,52.14,52.22,52.29,52.30,52.35,52.43,52.51,52.58,52.64,52.68,52.71,52.79,52.87,52.95,53.02,53.09,53.10,53.16,53.22,53.28,53.35,53.37,53.40,53.44,53.47,53.52,53.55,53.56,53.57,53.63,53.66,53.69,53.74,53.76,53.72
54.90,54.90,54.90,54.90,54.90,54.90,54.90,54.90,54.90,54.90,54.90,54.90,54.90,54.90,54.90,54.90,54.90,54.90,54.90,54.90,54.93,55.05,55.11,55.21,55.32,55.40,55.50,55.62,55.73,55.78,55.71,55.63,55.53,55.41,55.33,55.24,55.15,55.05,54.93,54.85,54.79,54.78,54.81,54.89,54.95,54.97,54.97,55.00,55.00,55.00,54.99,54.97,54.97,54.97,54.97,54.97,54.96,54.92,54.89,54.87,54.87,54.87,54.83,54.79,54.77,54.77,54.72,54.70,54.69,54.66,54.62,54.60,54.59,54.56,54.51,54.50,54.49,54.45,54.41,54.40,54.39,54.37,54.36,54.31,54.30,54.29,54.25,54.17,54.05,53.95,53.88,53.80,53.70,53.61,53.53,53.46,53.38,53.30,53.22,53.15,53.07,53.00,52.94,52.87,52.80,52.72,52.64,52.55,52.45,52.32,52.21,52.08,51.92,51.77,51.64,51.53,51.41,51.25,51.10,51.00,50.89,50.73,50.58,50.47,50.39,50.31,50.22,50.15,50.08,50.00,49.93,49.90,49.90,49.90,49.90,49.90,49.90,49.90,49.90,49.90,49.90,49.90,49.90,49.90,49.90,49.90,49.90,49.90,49.90,49.90,49.90,49.88,49.84,49.84,49.84,49.84,49.84,49.84,49.84,49.86,49.90,49.90,49.90,49.90,49.90,49.90,49.89,49.85,49.84,49.81,49.73,49.66,49.63,49.59,49.53,49.50,49.44,49.37,49.33,49.29,49.23,49.15,49.08,49.03,49.01,49.04,49.13,49.27,49.41,49.53,49.66,49.81,49.97,50.13,50.32,50.48,50.58,50.66,50.73,50.78,50.82,50.90,50.97,51.05,51.12,51.17,51.19,51.26,51.34,51.41,51.49,51.57,51.60,51.62,51.70,51.78,51.86,51.93,52.00,52.00,52.06,52.14,52.22,52.29,52.32,52.36,52.43,52.51,52.58,52.66,52.71,52.74,52.80,52.87,52.95,53.02,53.09,53.13,53.17,53.23,53.31,53.38,53.42,53.47,53.53,53.54,53.61,53.63,53.64,53.67,53.72,53.73,53.76,53.79,53.77,53.70
54.90,54.90,54.90,54.90,54.90,54.90,54.90,54.90,54.90,54.90,54.90,54.90,54.90,54.90,54.90,54.90,54.90,54.90,54.90,54.90,54.92,55.03,55.16,55.26,55.33,55.42,55.55,55.65,55.73,55.79,55.72,55.64,55.56,55.47,55.39,55.25,55.15,55.07,54.98,54.91,54.78,54.75,54.81,54.88,54.90,54.91,54.93,54.99,55.00,55.00,54.97,54.91,54.91,54.91,54.91,54.91,54.91,54.90,54.86,54.81,54.81,54.80,54.80,54.77,54.72,54.70,54.70,54.70,54.68,54.62,54.60,54.60,54.57,54.52,54.50,54.50,54.46,54.41,54.40,54.39,54.36,54.31,54.31,54.30,54.30,54.27,54.20,54.12,54.03,53.95,53.88,53.79,53.66,53.56,53.48,53.40,53.33,53.25,53.17,53.09,53.02,52.94,52.91,52.87,52.80,52.71,52.64,52.53,52.39,52.30,52.17,52.02,51.87,51.72,51.62,51.49,51.34,51.19,51.05,50.95,50.83,50.68,50.54,50.49,50.44,50.36,50.29,50.22,50.14,50.06,49.98,49.91,49.90,49.90,49.90,49.90,49.90,49.90,49.90,49.90,49.90,49.90,49.90,49.90,49.90,49.90,49.90,49.90,49.90,49.90,49.90,49.90,49.89,49.89,49.89,49.89,49.89,49.89,49.89,49.90,49.90,49.90,49.90,49.90,49.91,49.91,49.90,49.90,49.90,49.87,49.79,49.72,49.70,49.66,49.58,49.51,49.44,49.40,49.38,49.30,49.23,49.16,49.10,49.08,49.02,49.01,49.05,49.15,49.30,49.44,49.59,49.75,49.90,50.06,50.22,50.38,50.51,50.59,50.67,50.74,50.81,50.89,50.96,51.04,51.09,51.11,51.18,51.25,51.33,51.41,51.48,51.56,51.59,51.62,51.70,51.77,51.85,51.92,51.98,52.00,52.06,52.13,52.21,52.29,52.36,52.39,52.42,52.50,52.57,52.66,52.73,52.78,52.80,52.87,52.95,53.02,53.09,53.17,53.19,53.23,53.31,53.39,53.45,53.53,53.59,53.59,53.66,53.69,53.72,53.78,53.79,53.79,53.79,53.78,53.71,53.63
54.90,54.90,54.90,54.90,54.90,54.90,54.90,54.90,54.90,54.90,54.90,54.90,54.90,54.90,54.90,54.90,54.90,54.90,54.90,54.90,54.97,55.28,55.40,55.45,55.47,55.47,55.57,55.66,55.75,55.84,55.77,55.70,55.59,55.48,55.40,55.29,55.18,55.07,54.99,54.92,54.78,54.74,54.80,54.84,54.84,54.87,54.91,54.94,54.95,54.95,54.93,54.90,54.90,54.90,54.88,54.84,54.84,54.84,54.82,54.80,54.79,54.75,54.74,54.73,54.69,54.65,54.64,54.64,54.63,54.60,54.60,54.57,54.53,54.49,54.45,54.45,54.43,54.40,54.39,54.36,54.32,54.30,54.30,54.30,54.27,54.23,54.19,54.11,54.03,53.95,53.87,53.75,53.64,53.55,53.47,53.39,53.31,53.24,53.16,53.08,53.01,52.93,52.87,52.81,52.74,52.66,52.58,52.49,52.38,52.26,52.11,51.95,51.81,51.70,51.58,51.44,51.28,51.13,51.02,50.90,50.79,50.67,50.57,50.52,50.48,50.43,50.35,50.28,50.20,50.10,49.99,49.91,49.90,49.90,49.90,49.90,49.90,49.90,49.90,49.90,49.90,49.90,49.90,49.90,49.90,49.90,49.90,49.90,49.90,49.90,49.90,49.90,49.90,49.90,49.90,49.90,49.90,49.90,49.90,49.90,49.90,49.91,49.95,49.95,49.98,50.00,49.96,49.95,49.95,49.94,49.85,49.78,49.76,49.72,49.64,49.57,49.50,49.45,49.44,49.36,49.28,49.20,49.14,49.10,49.06,48.99,48.98,49.06,49.18,49.33,49.48,49.63,49.79,49.94,50.10,50.27,50.45,50.53,50.61,50.69,50.75,50.79,50.86,50.94,51.00,51.04,51.08,51.15,51.22,51.30,51.38,51.45,51.51,51.56,51.65,51.72,51.77,51.82,51.89,51.94,52.00,52.09,52.17,52.24,52.31,52.34,52.37,52.44,52.53,52.61,52.68,52.75,52.80,52.87,52.95,53.01,53.05,53.12,53.17,53.23,53.31,53.39,53.46,53.54,53.60,53.61,53.67,53.73,53.78,53.85,53.86,53.82,53.78,53.73,53.66,53.57
54.90,54.90,54.90,54.90,54.90,54.90,54.90,54.90,54.90,54.90,54.90,54.90,54.90,54.90,54.90,54.90,54.90,54.90,54.90,54.90,55.00,55.41,55.51,55.53,55.53,55.52,55.58,55.66,55.77,55.88,55.83,55.74,55.62,55.49,55.40,55.33,55.22,55.12,55.05,54.93,54.78,54.73,54.78,54.80,54.80,54.84,54.88,54.88,54.88,54.88,54.88,54.88,54.88,54.88,54.85,54.80,54.80,54.79,54.78,54.78,54.77,54.72,54.69,54.68,54.66,54.61,54.60,54.60,54.60,54.58,54.58,54.54,54.50,54.48,54.41,54.40,54.40,54.40,54.38,54.33,54.30,54.29,54.28,54.28,54.23,54.20,54.19,54.11,54.02,53.94,53.84,53.71,53.62,53.55,53.46,53.38,53.30,53.22,53.14,53.06,52.98,52.91,52.83,52.75,52.67,52.60,52.53,52.45,52.35,52.20,52.05,51.90,51.78,51.67,51.53,51.38,51.23,51.09,51.00,50.88,50.78,50.70,50.63,50.54,50.51,50.47,50.38,50.30,50.22,50.11,49.97,49.91,49.90,49.90,49.90,49.90,49.90,49.90,49.90,49.90,49.90,49.90,49.90,49.90,49.90,49.90,49.90,49.90,49.90,49.90,49.90,49.90,49.90,49.90,49.90,49.90,49.90,49.90,49.90,49.91,49.92,49.93,50.00,50.02,50.05,50.10,50.05,50.02,50.02,50.00,49.91,49.84,49.81,49.77,49.69,49.63,49.56,49.52,49.50,49.42,49.34,49.27,49.19,49.13,49.10,48.99,48.94,49.00,49.08,49.22,49.37,49.51,49.66,49.82,49.99,50.17,50.37,50.46,50.53,50.60,50.66,50.69,50.74,50.81,50.89,50.96,50.98,51.04,51.11,51.19,51.26,51.33,51.41,51.48,51.56,51.64,51.67,51.72,51.79,51.86,51.93,52.00,52.08,52.16,52.23,52.27,52.30,52.39,52.47,52.53,52.60,52.67,52.75,52.83,52.91,52.96,52.99,53.05,53.13,53.19,53.27,53.35,53.42,53.50,53.56,53.59,53.66,53.73,53.80,53.86,53.87,53.82,53.75,53.66,53.59,53.52
54.90,54.90,54.90,54.90,54.90,54.90,54.90,54.90,54.90,54.90,54.90,54.90,54.90,54.90,54.90,54.90,54.90,54.90,54.90,54.90,54.94,55.09,55.22,55.31,55.39,55.50,55.58,55.66,55.77,55.89,55.88,55.76,55.65,55.55,55.41,55.33,55.28,55.26,55.20,54.96,54.78,54.71,54.73,54.79,54.80,54.81,54.81,54.81,54.81,54.81,54.81,54.81,54.81,54.81,54.81,54.80,54.79,54.74,54.72,54.72,54.72,54.70,54.65,54.62,54.61,54.60,54.60,54.60,54.58,54.52,54.52,54.51,54.50,54.48,54.41,54.40,54.40,54.39,54.33,54.31,54.30,54.27,54.22,54.22,54.21,54.20,54.19,54.11,53.98,53.88,53.79,53.70,53.62,53.55,53.45,53.31,53.23,53.16,53.07,53.00,52.92,52.84,52.77,52.69,52.61,52.53,52.46,52.38,52.29,52.13,51.98,51.87,51.76,51.62,51.47,51.31,51.18,51.08,50.95,50.90,50.84,50.77,50.69,50.61,50.54,50.45,50.32,50.23,50.16,50.05,49.92,49.90,49.90,49.90,49.90,49.90,49.90,49.90,49.90,49.90,49.90,49.90,49.90,49.90,49.90,49.90,49.90,49.90,49.90,49.90,49.90,49.90,49.90,49.90,49.90,49.90,49.90,49.90,49.90,49.94,49.98,50.00,50.06,50.09,50.12,50.18,50.16,50.11,50.09,50.06,49.98,49.91,49.83,49.77,49.70,49.68,49.61,49.59,49.56,49.48,49.41,49.33,49.25,49.18,49.12,49.03,48.96,48.94,49.02,49.16,49.27,49.38,49.54,49.69,49.89,50.09,50.25,50.39,50.43,50.48,50.55,50.61,50.63,50.69,50.76,50.84,50.91,50.97,51.05,51.12,51.14,51.20,51.28,51.36,51.44,51.51,51.58,51.65,51.72,51.80,51.83,51.88,51.95,52.03,52.11,52.17,52.25,52.33,52.40,52.43,52.47,52.55,52.63,52.70,52.78,52.85,52.92,53.00,53.03,53.07,53.14,53.22,53.30,53.38,53.45,53.52,53.59,53.67,53.72,53.74,53.80,53.75,53.68,53.61,53.53,53.45
54.90,54.90,54.90,54.90,54.90,54.90,54.90,54.90,54.90,54.90,54.90,54.90,54.90,54.90,54.90,54.90,54.90,54.90,54.90,54.90,54.91,55.00,55.14,55.25,55.35,55.49,55.58,55.68,55.80,55.89,55.89,55.77,55.68,55.63,55.55,55.53,55.55,55.58,55.49,55.02,54.78,54.70,54.71,54.75,54.76,54.78,54.80,54.80,54.80,54.80,54.80,54.79,54.76,54.76,54.76,54.76,54.75,54.72,54.70,54.69,54.66,54.66,54.62,54.58,54.55,54.55,54.55,54.55,54.54,54.50,54.50,54.50,54.48,54.45,54.41,54.37,54.35,54.34,54.31,54.30,54.28,54.24,54.20,54.20,54.20,54.19,54.14,54.06,53.95,53.86,53.78,53.70,53.59,53.50,53.41,53.30,53.21,53.11,53.02,52.94,52.86,52.78,52.70,52.63,52.55,52.47,52.39,52.32,52.23,52.08,51.92,51.81,51.71,51.55,51.41,51.27,51.17,51.08,50.97,50.95,50.89,50.78,50.70,50.59,50.50,50.41,50.26,50.17,50.07,49.97,49.91,49.90,49.90,49.90,49.90,49.90,49.90,49.90,49.90,49.90,49.90,49.90,49.90,49.90,49.90,49.90,49.90,49.90,49.90,49.90,49.90,49.90,49.90,49.90,49.90,49.90,49.91,49.94,49.98,50.02,50.06,50.09,50.13,50.17,50.21,50.24,50.24,50.17,50.12,50.09,50.04,49.97,49.89,49.81,49.74,49.70,49.67,49.65,49.63,49.54,49.47,49.39,49.31,49.24,49.16,49.08,49.00,48.94,48.93,49.05,49.16,49.26,49.42,49.60,49.80,49.96,50.10,50.27,50.31,50.35,50.43,50.50,50.51,50.56,50.64,50.72,50.79,50.87,50.95,51.02,51.05,51.13,51.20,51.27,51.31,51.39,51.47,51.54,51.62,51.70,51.74,51.80,51.87,51.91,51.98,52.06,52.14,52.22,52.29,52.33,52.40,52.46,52.51,52.58,52.66,52.73,52.81,52.89,52.93,52.98,53.06,53.15,53.22,53.30,53.37,53.41,53.48,53.56,53.61,53.63,53.73,53.70,53.61,53.54,53.47,53.38
54.90,54.90,54.90,54.90,54.90,54.90,54.90,54.90,54.90,54.90,54.90,54.90,54.90,54.90,54.90,54.90,54.90,54.90,54.90,54.90,54.91,55.00,55.14,55.25,55.36,55.49,55.59,55.71,55.83,55.91,55.90,55.78,55.70,55.68,55.66,55.70,55.75,55.78,55.66,55.06,54.78,54.70,54.69,54.70,54.70,54.74,54.79,54.79,54.79,54.79,54.79,54.77,54.72,54.70,54.70,54.70,54.70,54.69,54.69,54.66,54.61,54.60,54.59,54.55,54.50,54.50,54.50,54.50,54.49,54.49,54.49,54.49,54.46,54.41,54.38,54.33,54.31,54.30,54.29,54.29,54.24,54.20,54.20,54.19,54.19,54.16,54.09,54.02,53.93,53.86,53.78,53.68,53.55,53.45,53.37,53.29,53.20,53.07,52.96,52.89,52.80,52.73,52.64,52.57,52.50,52.43,52.34,52.26,52.16,52.02,51.86,51.75,51.65,51.50,51.36,51.26,51.18,51.10,51.02,50.99,50.91,50.77,50.69,50.55,50.45,50.34,50.20,50.11,49.98,49.91,49.90,49.90,49.90,49.90,49.90,49.90,49.90,49.90,49.90,49.90,49.90,49.90,49.90,49.90,49.91,49.92,49.92,49.91,49.91,49.90,49.91,49.91,49.91,49.91,49.91,49.92,49.94,50.01,50.08,50.11,50.14,50.20,50.22,50.27,50.30,50.30,50.29,50.23,50.16,50.11,50.08,50.02,49.94,49.87,49.80,49.74,49.72,49.71,49.69,49.61,49.53,49.45,49.38,49.31,49.22,49.14,49.06,48.97,48.85,48.94,49.03,49.14,49.31,49.51,49.68,49.81,49.92,50.13,50.18,50.23,50.30,50.38,50.40,50.44,50.51,50.59,50.67,50.74,50.82,50.90,50.97,51.05,51.13,51.18,51.20,51.27,51.34,51.42,51.49,51.57,51.65,51.72,51.78,51.80,51.87,51.95,52.02,52.09,52.17,52.24,52.32,52.38,52.40,52.46,52.54,52.62,52.70,52.77,52.85,52.92,52.99,53.07,53.14,53.22,53.28,53.30,53.37,53.44,53.49,53.52,53.65,53.63,53.55,53.47,53.40,53.32
54.90,54.90,54.90,54.90,54.90,54.90,54.90,54.90,54.90,54.90,54.90,54.90,54.90,54.90,54.90,54.90,54.90,54.90,54.90,54.90,54.91,55.00,55.14,55.28,55.40,55.50,55.63,55.74,55.86,55.95,55.91,55.81,55.71,55.60,55.50,55.46,55.39,55.31,55.22,54.97,54.78,54.67,54.64,54.69,54.70,54.71,54.73,54.73,54.73,54.73,54.73,54.73,54.70,54.70,54.70,54.69,54.64,54.63,54.63,54.62,54.59,54.55,54.53,54.52,54.50,54.50,54.50,54.47,54.43,54.43,54.43,54.43,54.42,54.39,54.34,54.31,54.30,54.29,54.24,54.23,54.21,54.20,54.19,54.14,54.13,54.12,54.09,54.01,53.93,53.86,53.76,53.63,53.53,53.45,53.37,53.28,53.16,53.05,52.96,52.88,52.80,52.68,52.58,52.52,52.49,52.42,52.34,52.24,52.11,51.95,51.84,51.72,51.59,51.45,51.39,51.31,51.24,51.16,51.03,50.96,50.85,50.72,50.63,50.48,50.38,50.27,50.13,50.05,49.95,49.90,49.90,49.90,49.90,49.90,49.90,49.90,49.90,49.90,49.90,49.90,49.90,49.90,49.90,49.91,49.97,50.02,50.00,49.97,49.96,49.91,49.94,49.97,49.97,49.97,49.97,50.00,50.05,50.07,50.14,50.20,50.25,50.28,50.33,50.36,50.37,50.36,50.30,50.23,50.19,50.15,50.09,50.02,49.94,49.89,49.87,49.84,49.84,49.81,49.75,49.67,49.59,49.52,49.45,49.36,49.28,49.21,49.11,48.98,48.89,48.86,48.91,49.02,49.22,49.35,49.50,49.65,49.78,49.95,50.03,50.10,50.18,50.25,50.31,50.34,50.39,50.47,50.54,50.62,50.70,50.77,50.85,50.93,51.01,51.07,51.13,51.21,51.24,51.29,51.37,51.45,51.52,51.60,51.67,51.73,51.80,51.88,51.94,51.97,52.04,52.12,52.20,52.27,52.32,52.40,52.47,52.55,52.63,52.71,52.78,52.84,52.88,52.95,53.02,53.10,53.17,53.23,53.30,53.34,53.38,53.44,53.53,53.54,53.50,53.41,53.33,53.26
54.90,54.90,54.90,54.90,54.90,54.90,54.90,54.90,54.90,54.90,54.90,54.90,54.90,54.90,54.90,54.90,54.90,54.90,54.90,54.90,54.91,55.00,55.14,55.29,55.42,55.51,55.66,55.76,55.87,55.98,55.94,55.84,55.72,55.57,55.44,55.34,55.21,55.10,55.00,54.92,54.78,54.66,54.62,54.66,54.66,54.68,54.70,54.70,54.70,54.68,54.66,54.66,54.66,54.66,54.66,54.65,54.60,54.57,54.56,54.56,54.56,54.51,54.50,54.49,54.47,54.47,54.47,54.44,54.40,54.40,54.40,54.40,54.39,54.36,54.31,54.30,54.29,54.25,54.21,54.20,54.20,54.19,54.16,54.11,54.10,54.10,54.09,54.01,53.91,53.82,53.73,53.61,53.52,53.43,53.33,53.25,53.13,53.04,52.96,52.88,52.77,52.65,52.55,52.49,52.46,52.38,52.30,52.19,52.05,51.92,51.81,51.69,51.57,51.44,51.38,51.31,51.23,51.12,50.99,50.91,50.78,50.65,50.57,50.45,50.35,50.26,50.14,50.06,49.97,49.92,49.91,49.93,49.94,49.94,49.93,49.90,49.90,49.90,49.90,49.90,49.90,49.92,49.95,49.98,50.06,50.11,50.08,50.03,50.02,49.95,49.99,50.03,50.03,50.03,50.03,50.08,50.13,50.14,50.20,50.28,50.34,50.35,50.42,50.44,50.44,50.41,50.34,50.27,50.22,50.19,50.13,50.06,49.97,49.94,49.94,49.94,49.94,49.89,49.81,49.73,49.66,49.58,49.50,49.42,49.35,49.28,49.16,49.02,48.94,48.86,48.84,48.90,49.09,49.20,49.35,49.50,49.65,49.80,49.90,49.98,50.05,50.13,50.21,50.25,50.30,50.38,50.45,50.53,50.61,50.68,50.73,50.80,50.88,50.96,51.03,51.11,51.15,51.20,51.28,51.35,51.41,51.48,51.55,51.63,51.71,51.78,51.84,51.88,51.95,52.03,52.11,52.18,52.25,52.34,52.42,52.48,52.54,52.61,52.69,52.74,52.78,52.83,52.90,52.98,53.05,53.13,53.21,53.23,53.26,53.34,53.44,53.47,53.43,53.36,53.28,53.20
54.90,54.90,54.90,54.90,54.90,54.90,54.90,54.90,54.90,54.90,54.90,54.90,54.90,54.90,54.90,54.90,54.90,54.90,54.90,54.90,54.92,55.01,55.15,55.31,55.44,55.52,55.67,55.77,55.87,55.98,55.99,55.88,55.73,55.59,55.50,55.36,55.25,55.14,55.01,54.92,54.78,54.67,54.61,54.61,54.61,54.65,54.70,54.70,54.70,54.65,54.61,54.61,54.61,54.60,54.60,54.60,54.59,54.53,54.51,54.51,54.50,54.50,54.50,54.47,54.41,54.41,54.41,54.40,54.39,54.39,54.39,54.39,54.37,54.31,54.30,54.29,54.26,54.21,54.20,54.20,54.20,54.17,54.11,54.10,54.10,54.10,54.08,54.00,53.87,53.77,53.69,53.60,53.52,53.40,53.28,53.20,53.12,53.03,52.95,52.86,52.73,52.63,52.55,52.47,52.40,52.32,52.25,52.14,51.99,51.90,51.77,51.66,51.57,51.48,51.35,51.26,51.16,51.02,50.93,50.86,50.74,50.60,50.52,50.44,50.35,50.28,50.20,50.11,50.03,49.97,49.93,49.98,50.00,50.00,49.98,49.91,49.90,49.90,49.90,49.90,49.91,49.96,50.03,50.10,50.18,50.19,50.15,50.10,50.09,50.02,50.06,50.09,50.09,50.09,50.09,50.14,50.20,50.20,50.27,50.34,50.40,50.41,50.48,50.49,50.49,50.48,50.41,50.33,50.25,50.20,50.18,50.11,50.04,49.99,49.99,49.99,49.99,49.95,49.88,49.80,49.72,49.64,49.56,49.49,49.41,49.33,49.22,49.09,49.00,48.92,48.82,48.77,48.92,49.07,49.22,49.37,49.53,49.68,49.77,49.85,49.93,50.01,50.08,50.16,50.23,50.30,50.38,50.46,50.54,50.60,50.62,50.69,50.76,50.83,50.91,51.00,51.06,51.13,51.21,51.28,51.31,51.35,51.44,51.51,51.58,51.66,51.74,51.81,51.89,51.97,52.04,52.11,52.19,52.27,52.34,52.40,52.43,52.49,52.56,52.64,52.70,52.71,52.77,52.85,52.94,53.01,53.08,53.11,53.14,53.23,53.37,53.40,53.36,53.29,53.22,53.13
